ncols         231
nrows         46
xllcorner     618049.313
yllcorner     3996274.5
cellsize      1
NODATA_value  -9999
1606.87 1607.082 1606.891 1607.076 1607.26 1607.388 1607.563 1607.711 1607.886 1607.779 1607.873 1607.49 1607.676 1607.009 1606.977 1606.79 1607.181 1607.67 1608.213 1608.883 1608.895 1609.025 1609.386 1609.814 1610.429 1610.82 1611.237 1611.668 1611.934 1612.594 1612.583 1612.646 1612.925 1613.076 1613.422 1613.945 1614.216 1614.466 1614.734 1615.032 1615.418 1615.464 1615.627 1615.626 1615.589 1615.091 1614.954 1614.912 1614.993 1615.128 1615.307 1615.525 1615.766 1616.026 1616.3 1616.584 1616.875 1617.172 1617.473 1617.776 1618.071 1618.355 1618.625 1618.88 1619.114 1619.337 1619.548 1619.75 1619.957 1620.331 1620.716 1621.131 1621.511 1621.856 1622.176 1622.475 1622.759 1623.03 1623.289 1623.534 1623.766 1623.983 1624.179 1624.31 1624.322 1624.409 1624.504 1624.613 1624.728 1624.841 1624.942 1625.132 1625.436 1625.692 1625.926 1626.142 1626.347 1626.544 1626.717 1626.869 1627.054 1627.258 1627.501 1627.776 1628.077 1628.404 1628.761 1629.152 1629.571 1629.994 1630.032 1630.318 1630.791 1631.485 1632.497 1633.647 1634.249 1634.443 1634.464 1634.413 1634.281 1634.158 1634.09 1634.064 1634.09 1634.177 1634.304 1634.499 1634.782 1635.069 1635.411 1635.789 1636.206 1636.667 1637.191 1637.697 1638.136 1638.489 1638.75 1638.914 1638.96 1638.889 1638.801 1638.734 1638.651 1638.55 1638.438 1638.361 1638.349 1638.4 1638.533 1638.729 1638.954 1639.199 1639.455 1639.716 1640.027 1640.655 1641.332 1641.99 1642.616 1643.209 1643.772 1644.326 1644.91 1645.749 1646.717 1647.661 1648.561 1649.398 1650.03 1651.859 1653.576 1654.865 1655.342 1656.109 1656.781 1657.26 1658.034 1658.62 1659.409 1660.172 1660.762 1661.461 1662.155 1662.767 1663.428 1664.177 1664.596 1665.111 1665.858 1666.616 1667.51 1668.426 1670.765 1675.149 1675.993 1676.903 1677.276 1677.61 1678.134 1678.954 1679.497 1680.186 1680.845 1681.136 1681.545 1681.688 1681.784 1681.844 1681.981 1682.073 1682.254 1682.419 1682.729 1682.781 1682.741 1682.895 1683.072 1683.193 1683.309 1683.069 1682.666 1682.591 1682.203 1680.921 1680.983 1680.528 1679.964 1679.729 1679.558
1606.718 1606.912 1607.053 1607.02 1607.092 1607.073 1607.135 1607.082 1607.232 1607.306 1607.34 1607.182 1607.102 1606.896 1606.805 1606.757 1607.126 1607.416 1607.909 1608.375 1608.438 1608.902 1609.529 1609.522 1610.303 1610.689 1610.999 1611.385 1611.682 1612.101 1612.517 1612.857 1612.861 1612.75 1612.961 1613.296 1613.71 1614.089 1614.295 1614.591 1614.774 1614.999 1614.991 1614.921 1614.646 1614.414 1614.372 1614.484 1614.68 1614.85 1615.024 1615.224 1615.44 1615.669 1615.911 1616.175 1616.455 1616.745 1617.042 1617.335 1617.64 1617.939 1618.229 1618.51 1618.778 1619.034 1619.279 1619.514 1619.738 1619.956 1620.381 1620.815 1621.198 1621.543 1621.862 1622.16 1622.442 1622.709 1622.962 1623.199 1623.421 1623.625 1623.803 1623.929 1624.031 1624.137 1624.251 1624.377 1624.513 1624.658 1624.808 1624.951 1625.152 1625.368 1625.567 1625.749 1625.917 1626.07 1626.206 1626.352 1626.526 1626.729 1626.979 1627.269 1627.593 1627.949 1628.34 1628.765 1629.215 1629.652 1629.92 1630.003 1630.054 1630.531 1631.826 1632.735 1633.242 1633.52 1633.63 1633.587 1633.51 1633.438 1633.399 1633.394 1633.44 1633.54 1633.675 1633.853 1634.113 1634.448 1634.85 1635.275 1635.698 1636.174 1636.686 1637.13 1637.523 1637.831 1638.044 1638.164 1638.194 1638.125 1637.98 1637.873 1637.774 1637.678 1637.59 1637.576 1637.636 1637.779 1637.996 1638.272 1638.574 1638.892 1639.222 1639.562 1639.961 1640.578 1641.25 1641.922 1642.575 1643.199 1643.795 1644.346 1644.871 1645.761 1646.762 1647.716 1648.616 1649.435 1650.203 1652.001 1653.816 1654.541 1655.229 1655.846 1656.556 1657.173 1657.901 1658.464 1659.091 1659.834 1660.448 1661.097 1661.747 1662.497 1662.916 1663.714 1664.458 1665.143 1665.715 1666.826 1667.57 1668.271 1670.089 1672.874 1674.378 1675.774 1676.197 1676.959 1677.305 1677.461 1678.118 1678.922 1679.243 1680.19 1680.748 1680.97 1680.926 1680.975 1681.185 1681.491 1681.484 1681.654 1681.786 1681.877 1682.04 1682.29 1682.426 1682.545 1682.486 1682.471 1682.417 1682.274 1681.658 1680.795 1680.102 1679.781 1679.45 1679.051 1678.745
1606.42 1606.898 1607.035 1607.064 1607.145 1607.126 1607.044 1607.051 1607 1606.991 1606.867 1606.978 1606.931 1606.787 1606.707 1606.692 1607.057 1607.385 1607.802 1607.936 1608.304 1608.975 1609.522 1609.357 1609.891 1610.29 1610.721 1611.041 1611.342 1611.655 1612.199 1612.594 1612.528 1612.771 1612.938 1612.917 1613.193 1613.436 1613.856 1614.119 1614.49 1614.465 1614.541 1614.258 1613.911 1613.699 1613.963 1614.203 1614.397 1614.577 1614.748 1614.934 1615.131 1615.337 1615.551 1615.776 1616.034 1616.316 1616.605 1616.922 1617.252 1617.573 1617.886 1618.191 1618.483 1618.764 1619.035 1619.298 1619.554 1619.809 1620.139 1620.55 1620.922 1621.26 1621.573 1621.866 1622.143 1622.403 1622.647 1622.876 1623.09 1623.285 1623.454 1623.593 1623.712 1623.838 1623.967 1624.105 1624.255 1624.417 1624.592 1624.778 1624.965 1625.117 1625.252 1625.367 1625.466 1625.561 1625.69 1625.834 1625.996 1626.19 1626.443 1626.749 1627.099 1627.486 1627.898 1628.331 1628.757 1629.159 1629.502 1629.791 1629.981 1630.177 1631.211 1631.956 1632.397 1632.662 1632.79 1632.775 1632.735 1632.706 1632.695 1632.714 1632.775 1632.879 1633.012 1633.196 1633.46 1633.803 1634.217 1634.642 1635.044 1635.609 1636.15 1636.588 1636.946 1637.21 1637.382 1637.465 1637.462 1637.369 1637.183 1637.023 1636.901 1636.802 1636.739 1636.788 1636.928 1637.158 1637.461 1637.819 1638.193 1638.58 1638.981 1639.4 1639.873 1640.532 1641.245 1641.948 1642.629 1643.279 1643.89 1644.446 1644.951 1645.911 1646.949 1647.913 1648.796 1649.59 1650.195 1652.168 1653.606 1654.221 1655.078 1655.679 1656.396 1657.059 1657.715 1658.268 1658.801 1659.647 1660.402 1661.207 1661.555 1662.148 1662.806 1663.55 1664.359 1665.123 1665.751 1666.711 1667.563 1668.266 1669.385 1670.723 1673.497 1674.81 1675.259 1675.843 1676.552 1676.907 1677.38 1678.096 1678.408 1678.804 1679.301 1679.569 1679.96 1680.021 1680.311 1680.865 1680.979 1680.966 1680.965 1681.178 1681.345 1681.622 1681.802 1681.974 1682.109 1682.121 1681.79 1681.625 1681.044 1680.265 1679.421 1678.818 1678.397 1678.094 1677.953
1606.075 1606.425 1606.669 1606.753 1607.042 1607.134 1606.969 1606.873 1606.991 1606.558 1606.438 1606.596 1606.586 1606.515 1606.574 1606.592 1606.841 1607.34 1607.686 1608.078 1608.282 1608.748 1609.158 1609.385 1609.489 1610.031 1610.41 1610.719 1610.959 1611.356 1611.713 1612.17 1612.614 1612.526 1612.649 1612.645 1612.733 1612.765 1613.217 1613.536 1613.877 1613.802 1613.814 1613.328 1613.216 1613.349 1613.723 1613.931 1614.122 1614.307 1614.485 1614.661 1614.844 1615.032 1615.221 1615.413 1615.617 1615.884 1616.193 1616.552 1616.907 1617.25 1617.584 1617.905 1618.214 1618.513 1618.804 1619.089 1619.37 1619.653 1619.969 1620.336 1620.685 1621.006 1621.306 1621.59 1621.858 1622.108 1622.342 1622.562 1622.767 1622.952 1623.119 1623.26 1623.391 1623.527 1623.667 1623.814 1623.973 1624.146 1624.333 1624.537 1624.762 1625 1624.99 1624.993 1624.999 1625.038 1625.179 1625.32 1625.467 1625.639 1625.89 1626.219 1626.606 1627.02 1627.449 1627.88 1628.299 1628.699 1629.08 1629.443 1629.768 1630.053 1630.663 1631.3 1631.654 1631.865 1631.973 1631.971 1631.956 1631.962 1631.984 1632.026 1632.1 1632.204 1632.332 1632.523 1632.802 1633.178 1633.636 1634.119 1634.604 1635.237 1635.72 1636.097 1636.412 1636.636 1636.773 1636.819 1636.771 1636.634 1636.396 1636.185 1636.033 1635.894 1635.874 1635.985 1636.218 1636.538 1636.945 1637.383 1637.837 1638.296 1638.76 1639.24 1639.783 1640.492 1641.274 1642.028 1642.745 1643.424 1644.068 1644.727 1645.534 1646.497 1647.413 1648.301 1649.173 1649.962 1650.543 1651.602 1652.694 1653.472 1654.631 1655.552 1656.18 1656.975 1657.646 1658.456 1659.026 1659.865 1660.26 1660.994 1661.343 1661.959 1662.788 1663.473 1664.253 1665.19 1665.835 1666.903 1667.754 1668.5 1669.275 1670.272 1672.632 1674.053 1674.838 1674.925 1675.624 1676.202 1676.767 1677.438 1677.75 1678.285 1678.522 1678.796 1678.933 1679.288 1679.641 1679.905 1680.138 1680.271 1680.538 1680.847 1680.958 1681.061 1681.427 1681.639 1681.703 1681.518 1681.113 1680.616 1680.118 1679.881 1678.974 1678.285 1677.878 1677.328 1677.303
1605.729 1605.892 1606.116 1606.591 1606.463 1606.593 1607.071 1606.838 1606.807 1606.489 1606.184 1606.412 1606.417 1606.29 1606.429 1606.54 1606.768 1607.157 1607.389 1607.819 1608.309 1608.51 1608.867 1609.38 1609.261 1609.431 1610.026 1610.352 1610.648 1610.932 1611.318 1611.597 1611.792 1612.135 1612.479 1612.586 1612.652 1612.629 1612.544 1612.758 1613.017 1612.964 1612.916 1613.008 1613.103 1613.306 1613.473 1613.663 1613.851 1614.037 1614.22 1614.399 1614.575 1614.753 1614.928 1615.091 1615.243 1615.448 1615.83 1616.229 1616.606 1616.967 1617.312 1617.643 1617.964 1618.276 1618.582 1618.884 1619.184 1619.488 1619.814 1620.157 1620.476 1620.774 1621.058 1621.329 1621.584 1621.822 1622.045 1622.255 1622.449 1622.626 1622.788 1622.929 1623.069 1623.211 1623.357 1623.511 1623.677 1623.856 1624.049 1624.248 1624.428 1624.575 1624.621 1624.637 1624.662 1624.701 1624.76 1624.853 1624.967 1625.094 1625.315 1625.706 1626.136 1626.571 1627.006 1627.434 1627.851 1628.257 1628.656 1629.052 1629.446 1629.826 1630.265 1630.742 1630.976 1631.104 1631.165 1631.168 1631.166 1631.206 1631.271 1631.339 1631.424 1631.521 1631.635 1631.832 1632.139 1632.562 1633.071 1633.613 1634.195 1634.909 1635.353 1635.666 1635.932 1636.118 1636.218 1636.229 1636.136 1635.932 1635.609 1635.361 1635.171 1635.012 1635.033 1635.154 1635.51 1635.953 1636.465 1636.998 1637.533 1638.066 1638.598 1639.141 1639.719 1640.48 1641.372 1642.188 1642.946 1643.663 1644.388 1645.221 1646.221 1647.218 1648.126 1648.934 1649.771 1650.717 1651.381 1651.777 1652.635 1653.54 1654.634 1655.513 1656.527 1657.249 1657.869 1658.83 1659.306 1659.973 1660.512 1660.824 1661.138 1661.926 1662.634 1663.443 1664.22 1665.174 1666.023 1666.626 1667.782 1668.643 1669.226 1670.342 1672.175 1673.152 1674.11 1674.444 1674.89 1675.594 1676.043 1676.466 1677.014 1677.316 1677.748 1678.202 1678.573 1678.905 1679.245 1679.589 1679.784 1679.787 1679.747 1680.259 1680.383 1680.648 1680.892 1680.942 1680.943 1680.842 1680.316 1679.915 1679.1 1678.4 1677.772 1677.199 1676.945 1676.502 1676.421
1605.383 1605.641 1605.725 1606.076 1605.983 1605.945 1606.276 1606.469 1606.546 1606.289 1606.068 1606.132 1606.229 1606.121 1606.418 1606.388 1606.469 1606.874 1607.223 1607.664 1607.972 1608.395 1608.69 1608.98 1609.06 1609.18 1609.457 1609.943 1610.297 1610.695 1610.939 1611.23 1611.566 1611.745 1612.117 1612.22 1612.377 1612.587 1612.419 1612.447 1612.616 1612.772 1612.805 1612.86 1613.001 1613.061 1613.213 1613.393 1613.577 1613.763 1613.949 1614.134 1614.318 1614.498 1614.675 1614.842 1614.967 1615.062 1615.559 1615.969 1616.351 1616.714 1617.062 1617.399 1617.728 1618.05 1618.368 1618.683 1618.998 1619.318 1619.656 1620.003 1620.298 1620.565 1620.826 1621.081 1621.319 1621.543 1621.755 1621.953 1622.136 1622.305 1622.458 1622.599 1622.743 1622.889 1623.041 1623.201 1623.371 1623.549 1623.724 1623.885 1624.027 1624.145 1624.211 1624.25 1624.289 1624.337 1624.395 1624.466 1624.558 1624.669 1624.865 1625.264 1625.701 1626.136 1626.568 1626.993 1627.409 1627.82 1628.229 1628.64 1629.057 1629.49 1629.944 1630.236 1630.31 1630.353 1630.361 1630.357 1630.358 1630.438 1630.567 1630.677 1630.761 1630.836 1630.913 1631.114 1631.463 1631.954 1632.51 1633.12 1633.787 1634.555 1635.082 1635.308 1635.506 1635.655 1635.72 1635.695 1635.565 1635.289 1634.93 1634.813 1634.792 1634.832 1634.911 1634.987 1635 1635.415 1636.048 1636.678 1637.295 1637.904 1638.512 1639.134 1639.784 1640.68 1641.591 1642.461 1643.267 1644.023 1644.834 1645.846 1646.956 1648.01 1648.93 1649.675 1650.471 1651.385 1652.633 1653.721 1653.354 1655.417 1654.691 1655.622 1656.912 1657.554 1658.27 1659.01 1659.595 1659.99 1660.366 1660.766 1661.243 1661.826 1662.526 1663.443 1664.173 1665.1 1665.927 1666.587 1667.392 1668.359 1669.32 1669.967 1671.003 1672.1 1673.606 1674.045 1674.376 1674.55 1675.447 1675.577 1676.105 1676.304 1676.8 1676.916 1677.776 1677.868 1678.281 1678.511 1678.825 1678.467 1678.702 1679.16 1679.734 1679.84 1680.017 1679.961 1679.925 1679.639 1679.382 1678.436 1677.68 1677.301 1676.857 1676.25 1675.753 1675.589 1675.517
1605.02 1605.112 1605.477 1605.577 1605.718 1605.939 1605.909 1606.09 1606.195 1606.082 1605.957 1605.989 1605.995 1605.909 1606.132 1606.285 1606.395 1606.578 1606.965 1607.413 1607.775 1608.212 1608.33 1608.732 1608.984 1609.17 1609.199 1609.252 1609.865 1610.229 1610.534 1610.784 1611.098 1611.241 1611.457 1611.738 1611.845 1612.123 1612.372 1612.376 1612.659 1612.561 1612.747 1612.597 1612.68 1612.772 1612.937 1613.114 1613.298 1613.484 1613.672 1613.863 1614.054 1614.247 1614.442 1614.641 1614.848 1615.035 1615.376 1615.752 1616.121 1616.48 1616.829 1617.17 1617.504 1617.834 1618.16 1618.486 1618.813 1619.148 1619.496 1619.852 1620.152 1620.379 1620.611 1620.844 1621.063 1621.271 1621.469 1621.656 1621.826 1621.982 1622.128 1622.271 1622.415 1622.563 1622.719 1622.883 1623.052 1623.215 1623.367 1623.505 1623.629 1623.733 1623.803 1623.852 1623.9 1623.952 1624.011 1624.078 1624.158 1624.27 1624.518 1624.872 1625.278 1625.705 1626.132 1626.555 1626.972 1627.386 1627.799 1628.216 1628.64 1629.079 1629.51 1629.691 1629.711 1629.731 1629.743 1629.751 1629.773 1629.835 1629.936 1630.047 1630.128 1630.148 1630.177 1630.355 1630.815 1631.345 1631.964 1632.652 1633.405 1634.224 1634.965 1635.032 1635.146 1635.231 1635.268 1635.218 1635.03 1634.699 1634.523 1634.455 1634.46 1634.526 1634.65 1634.82 1634.972 1635.097 1635.783 1636.477 1637.162 1637.843 1638.526 1639.208 1639.974 1640.941 1641.949 1642.878 1643.741 1644.515 1645.389 1646.55 1647.722 1648.919 1649.983 1650.398 1653.398 1653.352 1655.02 1655.808 1655.818 1655.589 1655.125 1655.97 1657.265 1658.152 1658.594 1659.107 1659.557 1659.816 1660.319 1660.758 1661.212 1661.93 1662.689 1663.317 1664.05 1664.781 1665.789 1666.413 1667.082 1667.762 1668.744 1669.49 1669.899 1670.991 1672.537 1673.026 1673.592 1673.944 1674.126 1674.82 1675.085 1675.227 1675.637 1676.279 1676.534 1676.552 1677.342 1677.775 1677.95 1677.741 1678.207 1678.559 1678.843 1678.949 1679.053 1678.79 1678.664 1678.328 1678.167 1675.955 1676.221 1675.694 1675.278 1674.943 1674.664 1674.713 1674.665
1604.651 1604.447 1604.921 1605.221 1605.481 1605.707 1605.88 1605.947 1605.994 1605.98 1605.901 1605.765 1605.825 1605.963 1605.92 1606.052 1606.228 1606.379 1606.625 1607.163 1607.588 1607.88 1608.232 1608.399 1608.77 1609.067 1609.151 1608.99 1609.229 1609.629 1610.055 1610.4 1610.619 1610.845 1611.097 1611.156 1611.39 1611.52 1611.776 1611.806 1612 1611.817 1612.137 1612.092 1612.22 1612.468 1612.647 1612.827 1613.01 1613.198 1613.39 1613.585 1613.786 1613.993 1614.206 1614.428 1614.67 1614.953 1615.217 1615.554 1615.908 1616.26 1616.608 1616.951 1617.289 1617.624 1617.956 1618.288 1618.623 1618.968 1619.326 1619.691 1620.033 1620.212 1620.407 1620.615 1620.813 1621.002 1621.185 1621.357 1621.513 1621.657 1621.798 1621.941 1622.084 1622.235 1622.393 1622.558 1622.715 1622.864 1622.999 1623.124 1623.235 1623.33 1623.399 1623.453 1623.505 1623.558 1623.616 1623.681 1623.755 1623.897 1624.151 1624.483 1624.868 1625.278 1625.699 1626.119 1626.536 1626.95 1627.365 1627.782 1628.206 1628.627 1628.972 1629.184 1629.213 1629.239 1629.275 1629.319 1629.371 1629.436 1629.525 1629.629 1629.726 1629.822 1629.91 1629.982 1630.164 1630.722 1631.447 1632.221 1633.042 1633.885 1634.742 1634.991 1634.997 1635 1634.915 1634.671 1634.395 1634.157 1634.047 1634.022 1634.065 1634.168 1634.333 1634.561 1634.824 1635 1635.696 1636.429 1637.152 1637.874 1638.598 1639.328 1640.162 1641.202 1642.292 1643.32 1644.285 1645.147 1646.042 1647.172 1648.418 1649.818 1652.321 1653.166 1654.706 1655.531 1655.632 1656.215 1656.589 1656.322 1656.37 1656.582 1657.342 1658.275 1658.975 1659.487 1659.847 1659.974 1660.284 1660.793 1661.155 1661.887 1662.562 1663.143 1663.824 1664.651 1665.406 1665.904 1666.76 1667.612 1668.204 1669.015 1669.501 1670.029 1672.104 1672.483 1672.814 1673.314 1673.168 1673.384 1673.409 1673.659 1674.508 1675.043 1675.464 1675.681 1676.167 1676.502 1676.809 1676.824 1677.217 1677.843 1677.927 1677.963 1677.844 1677.868 1677.85 1677.055 1676.936 1674.854 1673.404 1673.507 1673.257 1673.479 1673.742 1673.622 1673.811
1604.285 1604.201 1604.34 1604.661 1604.888 1605.255 1605.511 1605.551 1605.8 1605.759 1605.754 1605.716 1605.635 1605.736 1605.773 1606.029 1606.004 1606.164 1606.291 1606.766 1607.341 1607.558 1607.834 1607.993 1608.342 1608.688 1608.927 1609.099 1609.097 1609.13 1609.384 1609.736 1610.025 1610.385 1610.588 1610.829 1610.839 1610.977 1611.156 1611.223 1611.414 1611.516 1611.499 1611.562 1611.941 1612.149 1612.341 1612.526 1612.714 1612.905 1613.103 1613.309 1613.522 1613.743 1613.972 1614.212 1614.472 1614.754 1615.057 1615.371 1615.708 1616.053 1616.399 1616.742 1617.08 1617.415 1617.748 1618.083 1618.421 1618.764 1619.111 1619.462 1619.799 1620.016 1620.192 1620.376 1620.554 1620.725 1620.893 1621.051 1621.194 1621.332 1621.469 1621.608 1621.751 1621.903 1622.063 1622.222 1622.369 1622.504 1622.63 1622.745 1622.848 1622.935 1623.001 1623.058 1623.11 1623.161 1623.216 1623.278 1623.355 1623.518 1623.77 1624.09 1624.459 1624.856 1625.268 1625.684 1626.099 1626.512 1626.926 1627.341 1627.759 1628.139 1628.452 1628.671 1628.744 1628.789 1628.841 1628.897 1628.96 1629.039 1629.136 1629.252 1629.377 1629.511 1629.66 1629.81 1629.943 1630.191 1631.013 1631.841 1632.652 1633.42 1634.038 1634.299 1634.37 1634.357 1634.202 1633.989 1633.741 1633.573 1633.507 1633.525 1633.608 1633.755 1633.967 1634.251 1634.605 1634.961 1635.632 1636.401 1637.174 1637.935 1638.689 1639.448 1640.334 1641.491 1642.639 1643.74 1644.819 1645.814 1646.683 1647.644 1648.779 1650.277 1651.006 1652.988 1655.157 1655.917 1656.394 1656.901 1657.545 1657.425 1657.792 1657.745 1657.745 1658.469 1659.314 1659.714 1659.841 1659.932 1660.243 1660.577 1661.09 1661.755 1662.383 1662.894 1663.563 1664.253 1665.063 1665.795 1666.29 1667.196 1668.118 1668.499 1668.908 1669.63 1671.225 1671.663 1671.826 1671.926 1672.157 1672.791 1672.639 1672.65 1673.185 1674.066 1674.2 1674.775 1674.971 1675.621 1675.628 1675.786 1676.541 1676.86 1676.964 1676.874 1677.01 1676.773 1676.363 1675.565 1674.632 1672.54 1672.298 1672.091 1672.272 1672.367 1672.744 1672.896 1673.002
1604.164 1604.276 1604.179 1604.308 1604.353 1604.703 1604.757 1605.201 1605.246 1605.406 1605.474 1605.366 1605.449 1605.714 1605.658 1605.99 1606.111 1606.055 1606.229 1606.492 1606.726 1607.501 1607.738 1607.698 1607.882 1608.221 1608.66 1608.963 1609.231 1609.219 1609.236 1609.204 1609.414 1609.801 1610.208 1610.299 1610.418 1610.575 1610.583 1610.781 1610.818 1611.004 1611.24 1611.354 1611.636 1611.824 1612.026 1612.219 1612.41 1612.607 1612.815 1613.032 1613.257 1613.49 1613.733 1613.988 1614.257 1614.546 1614.873 1615.193 1615.519 1615.856 1616.198 1616.538 1616.873 1617.205 1617.537 1617.868 1618.199 1618.529 1618.859 1619.183 1619.469 1619.705 1619.909 1620.098 1620.269 1620.427 1620.584 1620.736 1620.878 1621.009 1621.141 1621.274 1621.414 1621.566 1621.727 1621.877 1622.015 1622.143 1622.262 1622.37 1622.466 1622.546 1622.611 1622.668 1622.719 1622.767 1622.815 1622.871 1622.957 1623.128 1623.377 1623.69 1624.049 1624.436 1624.839 1625.25 1625.661 1626.071 1626.481 1626.892 1627.297 1627.656 1627.956 1628.179 1628.284 1628.344 1628.408 1628.474 1628.551 1628.645 1628.754 1628.882 1629.028 1629.188 1629.37 1629.571 1629.774 1630.009 1630.627 1631.439 1632.162 1632.793 1633.25 1633.475 1633.558 1633.529 1633.421 1633.276 1633.083 1632.954 1632.922 1632.974 1633.097 1633.286 1633.551 1633.896 1634.327 1634.838 1635.599 1636.456 1637.271 1638.064 1638.851 1639.622 1640.614 1641.88 1643.097 1644.267 1645.555 1646.779 1647.949 1648.006 1649.144 1650.372 1651.46 1652.993 1654.921 1656.206 1656.972 1657.337 1658.112 1658.335 1658.946 1658.155 1658.197 1658.64 1659.613 1659.492 1659.748 1659.869 1660.111 1660.531 1661.132 1661.768 1662.166 1662.807 1663.32 1663.966 1664.644 1665.474 1665.914 1666.369 1667.328 1667.953 1668.536 1668.842 1669.651 1670.442 1670.575 1671.081 1671.099 1671.412 1671.576 1671.939 1672.109 1672.565 1673.336 1673.954 1674.191 1674.45 1674.563 1675.126 1675.603 1675.956 1675.764 1675.831 1675.674 1675.115 1673.871 1672.402 1672.526 1671.167 1671.209 1671.278 1671.41 1671.763 1671.836 1671.926 1672.117
1604.289 1605.244 1604.279 1604.34 1604.268 1604.366 1604.387 1604.427 1604.994 1605.061 1605.448 1605.371 1605.398 1605.522 1605.64 1605.799 1605.821 1606.114 1606.178 1606.3 1606.403 1606.578 1607.302 1607.37 1607.652 1608.164 1608.18 1608.431 1608.724 1608.926 1609.007 1609.171 1609.189 1609.404 1609.448 1609.659 1609.768 1610.097 1610.133 1610.232 1610.441 1610.77 1611.011 1611.081 1611.329 1611.511 1611.708 1611.905 1612.101 1612.307 1612.525 1612.752 1612.987 1613.231 1613.486 1613.751 1614.029 1614.331 1614.668 1615.005 1615.336 1615.667 1616.004 1616.337 1616.666 1616.994 1617.32 1617.643 1617.963 1618.28 1618.593 1618.892 1619.153 1619.394 1619.611 1619.811 1619.972 1620.122 1620.273 1620.423 1620.563 1620.691 1620.815 1620.94 1621.073 1621.224 1621.384 1621.527 1621.659 1621.782 1621.896 1622 1622.09 1622.165 1622.228 1622.284 1622.333 1622.376 1622.419 1622.465 1622.553 1622.726 1622.975 1623.283 1623.635 1624.015 1624.411 1624.817 1625.223 1625.629 1626.035 1626.44 1626.836 1627.184 1627.48 1627.706 1627.828 1627.902 1627.976 1628.053 1628.144 1628.25 1628.372 1628.513 1628.675 1628.856 1629.062 1629.297 1629.549 1629.817 1630.248 1630.991 1631.61 1632.126 1632.491 1632.669 1632.749 1632.73 1632.644 1632.541 1632.403 1632.3 1632.294 1632.376 1632.535 1632.778 1633.108 1633.546 1634.093 1634.778 1635.685 1636.584 1637.435 1638.279 1639.142 1640.058 1641.156 1642.396 1643.693 1645.028 1646.534 1647.844 1648.901 1649.204 1649.564 1650.74 1651.876 1653.776 1655.129 1656.117 1656.629 1657.372 1657.876 1658.345 1658.376 1658.474 1657.997 1658.395 1659.073 1659.323 1659.369 1659.587 1659.843 1660.411 1661.076 1661.447 1661.922 1662.635 1663.301 1663.801 1664.554 1665.233 1665.695 1666.322 1666.766 1667.316 1667.887 1668.399 1668.888 1669.338 1669.711 1670.124 1670.184 1670.7 1670.973 1671.337 1671.61 1671.832 1672.512 1673.178 1673.421 1673.406 1673.673 1674.44 1674.908 1674.761 1674.724 1674.682 1674.328 1672.755 1671.798 1670.714 1670.299 1670.362 1670.328 1670.335 1670.495 1670.827 1671.075 1671.163 1671.243
1604.417 1605.585 1605.271 1604.599 1604.233 1604.246 1604.133 1604.161 1604.134 1604.552 1604.878 1605.157 1605.442 1605.319 1605.774 1605.586 1605.634 1606.11 1605.951 1606.225 1606.431 1606.25 1606.694 1606.813 1607.258 1607.722 1607.687 1607.997 1608.129 1608.438 1608.86 1609.147 1609.224 1609.344 1609.353 1609.477 1609.629 1609.834 1610.848 1610.237 1610.262 1610.393 1610.698 1610.817 1611.031 1611.208 1611.393 1611.587 1611.788 1612.003 1612.229 1612.465 1612.71 1612.965 1613.229 1613.504 1613.796 1614.111 1614.453 1614.802 1615.145 1615.48 1615.811 1616.137 1616.459 1616.78 1617.096 1617.409 1617.717 1618.021 1618.316 1618.59 1618.847 1619.091 1619.317 1619.517 1619.688 1619.826 1619.968 1620.113 1620.256 1620.384 1620.498 1620.61 1620.727 1620.874 1621.034 1621.174 1621.304 1621.428 1621.545 1621.645 1621.73 1621.801 1621.86 1621.91 1621.953 1621.991 1622.026 1622.062 1622.142 1622.315 1622.563 1622.87 1623.218 1623.593 1623.984 1624.386 1624.787 1625.188 1625.589 1625.989 1626.379 1626.725 1627.02 1627.248 1627.376 1627.463 1627.548 1627.635 1627.737 1627.854 1627.986 1628.139 1628.314 1628.505 1628.723 1628.977 1629.261 1629.58 1629.951 1630.532 1631.023 1631.449 1631.739 1631.89 1631.955 1631.939 1631.87 1631.789 1631.701 1631.611 1631.623 1631.728 1631.938 1632.253 1632.709 1633.288 1633.983 1634.828 1635.777 1636.725 1637.642 1638.564 1639.514 1640.536 1641.703 1642.961 1644.277 1645.789 1647.145 1648.423 1649.278 1650.052 1650.604 1651.14 1651.966 1653.19 1654.51 1655.326 1655.818 1656.115 1656.829 1657.048 1657.178 1657.288 1657.051 1657.743 1658.496 1658.925 1658.732 1658.907 1659.448 1659.755 1660.228 1660.852 1661.544 1662.167 1662.856 1663.563 1664.216 1665.023 1665.438 1666.016 1666.414 1667.047 1667.587 1667.911 1668.445 1668.827 1669.025 1669.288 1669.498 1669.769 1670.14 1670.437 1670.765 1671.094 1671.489 1671.896 1672.234 1672.61 1673.134 1673.587 1673.754 1673.68 1673.584 1673.283 1672.032 1670.958 1669.99 1669.471 1669.459 1669.233 1669.453 1669.511 1669.815 1670.108 1670.22 1670.384 1670.393
1604.54 1606.198 1605.97 1605.053 1605.086 1604.698 1604.339 1604.173 1604.193 1604.13 1604.203 1604.662 1605.294 1605.243 1605.437 1605.389 1605.55 1605.773 1606.004 1606.352 1606.198 1606.175 1606.249 1606.328 1606.762 1607.145 1607.186 1607.474 1607.878 1608.046 1608.31 1608.63 1608.83 1609.057 1609.106 1609.367 1609.332 1609.447 1609.724 1610.056 1610.2 1610.267 1610.329 1610.559 1610.736 1610.904 1611.083 1611.269 1611.471 1611.691 1611.925 1612.17 1612.425 1612.689 1612.966 1613.256 1613.561 1613.888 1614.235 1614.587 1614.943 1615.286 1615.612 1615.931 1616.246 1616.557 1616.863 1617.164 1617.46 1617.75 1618.027 1618.291 1618.547 1618.793 1619.021 1619.224 1619.402 1619.546 1619.679 1619.815 1619.953 1620.089 1620.204 1620.291 1620.373 1620.507 1620.679 1620.823 1620.963 1621.098 1621.215 1621.313 1621.393 1621.459 1621.512 1621.553 1621.585 1621.614 1621.64 1621.663 1621.724 1621.893 1622.142 1622.45 1622.797 1623.169 1623.558 1623.955 1624.352 1624.748 1625.144 1625.539 1625.928 1626.275 1626.574 1626.802 1626.931 1627.031 1627.124 1627.219 1627.329 1627.454 1627.596 1627.757 1627.934 1628.13 1628.354 1628.615 1628.907 1629.237 1629.622 1629.979 1630.345 1630.722 1631.009 1631.141 1631.175 1631.145 1631.092 1631.022 1630.967 1630.909 1630.91 1631.026 1631.313 1631.761 1632.373 1633.102 1633.929 1634.872 1635.854 1636.843 1637.823 1638.827 1639.86 1640.987 1642.287 1643.488 1644.904 1646.062 1647.117 1647.881 1648.688 1649.855 1650.393 1651.087 1652.042 1652.718 1653.518 1654.232 1654.624 1654.908 1655.488 1656.102 1656.432 1656.44 1656.57 1657.13 1657.951 1658.053 1657.828 1658.146 1658.72 1659.265 1659.748 1660.161 1660.93 1661.575 1662.665 1663.248 1663.807 1664.314 1664.789 1665.494 1665.707 1666.616 1667.151 1667.601 1667.825 1667.983 1668.351 1668.364 1668.704 1668.861 1669.441 1669.521 1669.906 1670.431 1670.685 1670.997 1671.483 1671.888 1672.454 1671.993 1671.242 1671.256 1671.407 1670.082 1669.292 1668.989 1668.834 1668.652 1668.367 1668.49 1668.549 1668.594 1669.138 1669.185 1669.397 1669.549 1669.47
1604.665 1606.247 1606.341 1606.134 1606.275 1606.122 1605.57 1604.63 1604.222 1604.124 1604.266 1604.695 1605.354 1604.81 1604.772 1605.11 1605.303 1605.594 1605.557 1605.849 1606.13 1606.28 1606.437 1606.253 1606.388 1606.426 1606.772 1607.097 1607.432 1607.724 1608.13 1608.374 1608.574 1608.756 1608.843 1608.894 1608.807 1609.08 1609.367 1609.642 1609.789 1609.971 1610.199 1610.307 1610.438 1610.599 1610.77 1610.952 1611.154 1611.378 1611.618 1611.871 1612.137 1612.414 1612.704 1613.007 1613.326 1613.663 1614.012 1614.366 1614.726 1615.081 1615.402 1615.715 1616.022 1616.324 1616.619 1616.908 1617.192 1617.466 1617.734 1617.995 1618.251 1618.498 1618.728 1618.934 1619.118 1619.268 1619.401 1619.533 1619.668 1619.804 1619.938 1620.004 1620.027 1620.098 1620.33 1620.497 1620.658 1620.796 1620.912 1621.006 1621.081 1621.141 1621.185 1621.215 1621.235 1621.249 1621.261 1621.269 1621.301 1621.461 1621.713 1622.024 1622.372 1622.744 1623.133 1623.526 1623.918 1624.309 1624.7 1625.089 1625.477 1625.832 1626.139 1626.365 1626.495 1626.605 1626.706 1626.805 1626.919 1627.05 1627.198 1627.361 1627.539 1627.735 1627.962 1628.221 1628.506 1628.816 1629.15 1629.423 1629.702 1630.006 1630.326 1630.414 1630.388 1630.353 1630.31 1630.248 1630.193 1630.198 1630.211 1630.254 1630.693 1631.344 1632.124 1632.993 1633.926 1634.899 1635.91 1636.937 1637.954 1639.008 1640.133 1641.43 1643.033 1644.211 1645.294 1645.906 1646.354 1647.18 1647.425 1648.536 1649.602 1650.6 1651.53 1652.471 1652.905 1653.17 1653.78 1653.917 1654.589 1655.073 1655.188 1655.316 1655.622 1656.572 1656.853 1657.077 1656.976 1657.461 1658.358 1658.741 1659.09 1659.707 1660.295 1661.18 1662.214 1662.552 1663.307 1663.859 1664.343 1664.871 1665.429 1665.967 1666.345 1666.658 1667.005 1667.028 1667.393 1667.391 1667.752 1668.035 1668.285 1668.565 1669.117 1669.329 1669.8 1669.981 1670.459 1670.818 1670.471 1670.079 1669.626 1669.271 1669.03 1668.415 1668.391 1668.227 1667.848 1667.901 1667.628 1667.68 1667.925 1668.122 1668.24 1668.426 1668.499 1668.644 1668.456
1604.791 1605.695 1606.322 1606.483 1606.28 1606.16 1606.16 1605.998 1605.724 1605.439 1604.878 1605.621 1605.016 1604.635 1604.526 1604.56 1604.775 1604.686 1605.371 1605.667 1605.98 1606.235 1606.428 1606.315 1606.335 1606.415 1606.695 1606.54 1606.94 1607.174 1607.566 1607.856 1608.138 1608.5 1608.883 1608.985 1608.798 1609.155 1609.138 1609.296 1609.551 1609.822 1609.945 1610.038 1610.143 1610.288 1610.453 1610.63 1610.832 1611.06 1611.308 1611.571 1611.849 1612.141 1612.444 1612.759 1613.09 1613.433 1613.781 1614.134 1614.491 1614.843 1615.175 1615.486 1615.786 1616.077 1616.361 1616.639 1616.911 1617.179 1617.443 1617.703 1617.958 1618.207 1618.438 1618.649 1618.837 1618.991 1619.128 1619.275 1619.427 1619.582 1619.733 1619.884 1619.986 1620 1620.041 1620.233 1620.396 1620.531 1620.642 1620.73 1620.798 1620.848 1620.881 1620.9 1620.907 1620.903 1620.894 1620.882 1620.875 1621.016 1621.273 1621.591 1621.943 1622.322 1622.71 1623.098 1623.486 1623.872 1624.257 1624.641 1625.023 1625.392 1625.712 1625.929 1626.072 1626.192 1626.297 1626.396 1626.509 1626.641 1626.79 1626.952 1627.127 1627.322 1627.548 1627.8 1628.068 1628.353 1628.64 1628.88 1629.151 1629.432 1629.689 1629.737 1629.759 1629.795 1629.828 1629.859 1629.917 1629.981 1630 1630 1630.272 1631.059 1631.979 1632.938 1633.918 1634.918 1635.943 1636.996 1638.044 1639.108 1640.299 1641.885 1642.893 1643.748 1644.444 1644.759 1645.432 1646.088 1646.923 1648.106 1648.989 1650.342 1651.326 1652.083 1652.499 1652.798 1652.852 1653.437 1653.935 1654.124 1654.12 1654.312 1654.999 1655.249 1655.845 1656.081 1656.457 1657.566 1657.973 1658.187 1658.307 1659.073 1659.758 1660.362 1661.353 1662.261 1663.015 1663.424 1663.928 1664.35 1665.017 1665.39 1665.375 1665.989 1665.815 1666.1 1666.35 1666.684 1666.805 1667.275 1667.426 1667.981 1668.152 1668.51 1668.977 1669.3 1669.79 1669.969 1669.719 1669.432 1668.753 1668.35 1668.045 1667.633 1667.382 1667.258 1667.11 1667.094 1666.927 1666.814 1667.112 1667.264 1667.578 1667.631 1667.711 1667.915 1667.542
1604.576 1604.899 1605.513 1606.014 1606.117 1606.208 1605.942 1605.94 1605.783 1605.669 1605.384 1605.389 1604.357 1604.386 1604.272 1604.251 1604.302 1604.395 1604.658 1605.017 1605.432 1605.763 1605.934 1606.201 1606.43 1606.432 1606.67 1606.59 1606.586 1606.78 1606.996 1607.31 1607.49 1608.05 1608.422 1608.835 1609.143 1609.379 1609.485 1609.195 1609.365 1609.621 1609.656 1609.728 1609.841 1609.975 1610.132 1610.303 1610.502 1610.736 1610.994 1611.27 1611.564 1611.87 1612.187 1612.515 1612.854 1613.198 1613.546 1613.897 1614.25 1614.598 1614.938 1615.252 1615.542 1615.822 1616.095 1616.365 1616.631 1616.894 1617.154 1617.412 1617.666 1617.916 1618.152 1618.37 1618.562 1618.718 1618.874 1619.039 1619.208 1619.38 1619.552 1619.728 1619.881 1619.989 1620 1620.041 1620.184 1620.306 1620.406 1620.484 1620.543 1620.583 1620.606 1620.614 1620.605 1620.581 1620.546 1620.502 1620.463 1620.551 1620.817 1621.147 1621.518 1621.903 1622.288 1622.673 1623.056 1623.438 1623.819 1624.198 1624.573 1624.942 1625.29 1625.514 1625.672 1625.796 1625.901 1625.995 1626.1 1626.226 1626.372 1626.528 1626.699 1626.893 1627.115 1627.352 1627.6 1627.856 1628.097 1628.334 1628.607 1628.883 1629.068 1629.201 1629.303 1629.406 1629.521 1629.641 1629.759 1629.87 1629.971 1630 1630.001 1630.76 1631.836 1632.886 1633.917 1634.944 1635.98 1637.01 1638.036 1639.098 1640.74 1641.69 1641.878 1642.737 1643.328 1644.099 1644.843 1645.773 1646.7 1647.713 1648.791 1650.123 1651.046 1651.557 1652.129 1652.147 1652.264 1652.445 1652.867 1653.386 1653.442 1653.873 1654.281 1654.109 1654.946 1655.405 1656.304 1657.261 1657.238 1657.605 1658.15 1658.774 1659.406 1660.032 1660.704 1661.707 1662.371 1662.775 1663.254 1663.609 1664.268 1664.565 1664.689 1664.94 1664.912 1665.405 1665.341 1665.862 1666.074 1666.445 1666.621 1666.922 1667.428 1667.781 1668.168 1668.508 1668.709 1669.146 1668.885 1668.476 1668.285 1667.462 1667.308 1666.776 1666.562 1666.458 1666.319 1666.158 1666.231 1666.157 1666.474 1666.476 1666.767 1666.81 1666.907 1667.164 1666.809
1604.249 1604.487 1604.808 1605.298 1605.809 1606.01 1605.98 1605.972 1606.012 1606.026 1605.832 1605.667 1605.204 1604.947 1604.806 1604.346 1604.092 1604.031 1604.156 1604.459 1604.659 1604.802 1605.232 1605.57 1605.889 1606.148 1606.469 1606.544 1606.423 1606.565 1606.766 1606.895 1607.223 1607.404 1607.823 1608.382 1608.881 1609.227 1609.472 1609.212 1609.375 1609.372 1609.343 1609.345 1609.496 1609.67 1609.828 1609.981 1610.161 1610.408 1610.678 1610.972 1611.285 1611.607 1611.938 1612.275 1612.616 1612.96 1613.307 1613.657 1614.007 1614.353 1614.696 1615.022 1615.31 1615.573 1615.833 1616.092 1616.35 1616.607 1616.865 1617.121 1617.375 1617.626 1617.871 1618.099 1618.293 1618.46 1618.635 1618.82 1619.008 1619.199 1619.391 1619.582 1619.76 1619.92 1620 1620 1620.039 1620.127 1620.208 1620.274 1620.323 1620.354 1620.369 1620.365 1620.343 1620.3 1620.234 1620.131 1620.056 1620.052 1620.344 1620.724 1621.105 1621.487 1621.869 1622.248 1622.626 1623.004 1623.382 1623.759 1624.134 1624.508 1624.902 1625.163 1625.318 1625.433 1625.529 1625.613 1625.696 1625.806 1625.94 1626.088 1626.255 1626.451 1626.661 1626.876 1627.099 1627.322 1627.541 1627.787 1628.066 1628.31 1628.515 1628.704 1628.881 1629.055 1629.232 1629.406 1629.572 1629.732 1629.881 1629.995 1630 1630.583 1631.739 1632.879 1633.965 1635.012 1636.021 1636.997 1637.949 1638.929 1640.001 1640.957 1641.462 1641.963 1642.74 1643.505 1644.594 1645.331 1646.339 1647.294 1648.557 1649.737 1650.152 1651.244 1651.906 1651.646 1651.699 1652.1 1652.342 1652.196 1652.777 1653.149 1653.304 1653.571 1654.184 1655.227 1655.879 1655.939 1656.385 1657.069 1657.737 1658.444 1658.842 1659.686 1660.266 1660.762 1661.309 1662.059 1662.651 1662.88 1663.732 1663.847 1663.718 1663.937 1664.224 1664.355 1664.597 1664.983 1665.064 1665.479 1665.764 1665.962 1666.526 1666.922 1667.331 1667.712 1667.927 1668.144 1668.105 1667.768 1667.293 1666.916 1666.463 1666.073 1665.791 1665.763 1665.349 1665.163 1665.22 1665.432 1665.608 1665.885 1666.27 1666.292 1666.286 1666.036 1665.956
1603.922 1604.53 1604.726 1604.761 1605.176 1605.424 1605.958 1606.047 1606.151 1606.107 1606.126 1606.091 1605.788 1605.673 1605.272 1604.914 1604.357 1604.354 1604.251 1604.217 1604.561 1604.347 1604.602 1605.005 1605.149 1605.696 1605.9 1606.156 1606.367 1606.469 1606.694 1606.66 1606.935 1607.191 1607.478 1607.886 1608.323 1608.873 1609 1609.187 1609.278 1609.406 1609.12 1609.001 1609.166 1609.395 1609.566 1609.723 1609.89 1610.098 1610.373 1610.689 1611.02 1611.354 1611.691 1612.031 1612.374 1612.72 1613.068 1613.417 1613.764 1614.109 1614.452 1614.793 1615.092 1615.335 1615.573 1615.818 1616.066 1616.32 1616.578 1616.834 1617.088 1617.34 1617.595 1617.836 1618.034 1618.219 1618.419 1618.621 1618.826 1619.034 1619.245 1619.45 1619.646 1619.83 1619.987 1620 1620 1620.019 1620.066 1620.112 1620.148 1620.17 1620.177 1620.167 1620.14 1620.094 1620.031 1619.99 1619.79 1619.669 1619.94 1620.317 1620.696 1621.073 1621.447 1621.82 1622.194 1622.568 1622.944 1623.32 1623.698 1624.082 1624.476 1624.902 1625.066 1625.133 1625.192 1625.252 1625.311 1625.376 1625.487 1625.629 1625.803 1625.988 1626.176 1626.366 1626.558 1626.755 1626.981 1627.238 1627.522 1627.764 1628.002 1628.242 1628.48 1628.715 1628.947 1629.171 1629.385 1629.588 1629.779 1629.947 1630.003 1630.661 1631.815 1632.961 1634.096 1635.135 1636.048 1636.898 1637.665 1638.678 1639.489 1640.126 1640.816 1641.529 1642.508 1643.326 1644.447 1645.111 1646.065 1646.812 1648.28 1649.284 1650.364 1651.193 1651.602 1651.365 1650.925 1650.944 1651.583 1651.96 1652.056 1652.223 1652.477 1653.046 1654.008 1654.746 1655.086 1655.243 1655.725 1656.412 1657.253 1657.82 1658.586 1659.347 1660.01 1660.379 1661.079 1661.375 1661.885 1662.373 1662.875 1662.958 1662.89 1662.955 1663.338 1663.403 1663.578 1664.055 1664.277 1664.615 1665.011 1665.363 1665.791 1666.024 1666.574 1666.899 1667.257 1667.424 1667.231 1667.028 1666.455 1666.084 1665.633 1665.476 1664.918 1664.833 1664.639 1664.563 1664.658 1664.638 1664.801 1665.008 1665.288 1665.412 1665.215 1665.359 1665.086
1603.595 1603.783 1604.461 1604.385 1604.895 1605.032 1605.169 1605.424 1605.88 1606.052 1606.254 1606.279 1606.117 1606.192 1606.063 1606.039 1605.562 1605.682 1604.713 1604.572 1604.453 1604.446 1604.277 1604.27 1604.691 1605.245 1605.291 1605.894 1606.085 1606.381 1606.61 1606.706 1606.716 1607.056 1607.104 1607.504 1607.879 1608.19 1608.314 1608.717 1609.126 1609.125 1609.247 1609.455 1609.064 1609.209 1609.354 1609.508 1609.664 1609.841 1610.066 1610.408 1610.757 1611.1 1611.443 1611.787 1612.133 1612.48 1612.829 1613.176 1613.522 1613.867 1614.21 1614.552 1614.89 1615.123 1615.314 1615.534 1615.776 1616.033 1616.293 1616.552 1616.809 1617.068 1617.325 1617.579 1617.792 1618 1618.211 1618.424 1618.64 1618.86 1619.081 1619.303 1619.523 1619.734 1619.933 1620 1620 1620 1620.001 1620.016 1620.033 1620.044 1620.046 1620.037 1620.019 1620.001 1620 1619.833 1619.525 1619.264 1619.542 1619.913 1620.288 1620.654 1621.021 1621.39 1621.759 1622.13 1622.503 1622.878 1623.254 1623.633 1624.015 1624.399 1624.681 1624.76 1624.797 1624.84 1624.89 1624.944 1625.004 1625.161 1625.32 1625.481 1625.646 1625.81 1625.98 1626.179 1626.417 1626.694 1626.978 1627.238 1627.517 1627.806 1628.096 1628.385 1628.669 1628.944 1629.205 1629.452 1629.682 1629.893 1630 1630.78 1631.993 1633.127 1634.186 1635.11 1635.965 1636.716 1637.418 1638.202 1639.167 1639.997 1640.993 1641.877 1643.078 1644.081 1644.986 1645.851 1646.602 1647.07 1647.914 1648.84 1650.09 1650.939 1651.369 1651.141 1650.47 1650.885 1650.89 1651.424 1651.339 1651.416 1651.812 1652.625 1653.545 1653.846 1653.807 1654.36 1655.342 1655.888 1656.684 1657.417 1658.002 1658.735 1659.339 1659.969 1660.567 1660.922 1661.312 1661.904 1662.098 1662.054 1661.958 1662.184 1662.392 1662.739 1662.982 1663.113 1663.434 1663.757 1664.092 1664.549 1664.825 1665.422 1665.554 1665.99 1666.408 1666.606 1666.404 1666.14 1665.899 1665.242 1665.025 1664.826 1664.199 1664.23 1663.963 1663.822 1663.855 1663.975 1664.098 1664.294 1664.47 1664.431 1664.446 1664.454 1664.268
1603.268 1602.975 1603.493 1603.905 1604.25 1604.68 1604.907 1605.162 1605.314 1605.365 1605.885 1606.266 1606.019 1606.236 1606.243 1606.239 1606.155 1606.078 1605.861 1605.363 1604.784 1604.972 1604.226 1604.307 1604.207 1604.362 1604.585 1604.866 1605.392 1605.65 1605.94 1606.349 1606.74 1606.943 1606.985 1607.066 1607.302 1607.316 1607.874 1608.177 1608.465 1608.735 1608.983 1609.147 1608.968 1609.049 1609.136 1609.259 1609.412 1609.594 1609.818 1610.145 1610.5 1610.85 1611.198 1611.546 1611.894 1612.242 1612.59 1612.94 1613.291 1613.641 1613.988 1614.325 1614.652 1614.943 1615.049 1615.214 1615.471 1615.741 1616.011 1616.283 1616.553 1616.82 1617.088 1617.35 1617.577 1617.792 1618.008 1618.224 1618.444 1618.669 1618.898 1619.131 1619.368 1619.609 1619.848 1620 1620 1620 1620 1620 1620 1620 1620 1620 1620 1619.997 1619.832 1619.535 1619.23 1619.133 1619.239 1619.525 1619.875 1620.235 1620.597 1620.961 1621.325 1621.691 1622.058 1622.427 1622.798 1623.169 1623.536 1623.874 1624.116 1624.214 1624.264 1624.322 1624.393 1624.478 1624.578 1624.701 1624.84 1624.977 1625.11 1625.245 1625.397 1625.594 1625.858 1626.156 1626.442 1626.728 1627.05 1627.387 1627.727 1628.067 1628.402 1628.727 1629.037 1629.331 1629.603 1629.848 1630.022 1631.073 1632.319 1633.458 1634.377 1634.907 1635.881 1636.799 1637.764 1638.626 1639.684 1640.614 1641.489 1642.34 1643.269 1644.301 1645.306 1646.268 1646.918 1647.379 1647.851 1648.594 1649.409 1650.432 1650.893 1650.472 1649.841 1650.008 1650.137 1650.436 1650.456 1650.488 1651.328 1651.947 1652.835 1652.818 1653.511 1653.887 1654.719 1655.416 1656.134 1656.835 1657.543 1658.131 1658.845 1659.314 1659.935 1660.021 1660.53 1660.994 1661.369 1661.277 1661.183 1661.446 1661.488 1661.959 1662.142 1662.213 1662.528 1663.065 1663.236 1663.698 1663.977 1664.449 1665.07 1665.19 1665.678 1665.795 1665.518 1665.325 1664.975 1664.575 1664.312 1663.905 1663.55 1663.233 1663.146 1663.114 1663.024 1663.256 1663.347 1663.614 1663.549 1663.57 1663.554 1663.663 1663.407
1602.941 1602.952 1602.893 1603.069 1603.645 1604.205 1604.519 1604.719 1604.934 1604.851 1605.103 1605.492 1605.683 1605.975 1606.152 1606.225 1606.297 1606.265 1606.278 1605.687 1605.861 1605.468 1605.179 1604.565 1604.521 1604.124 1604.25 1604.417 1604.421 1604.824 1605.391 1605.77 1606.36 1606.647 1606.897 1607.026 1606.984 1607.243 1607.414 1607.523 1607.854 1608.288 1608.543 1608.776 1608.807 1608.81 1608.852 1608.968 1609.135 1609.343 1609.614 1609.94 1610.28 1610.619 1610.962 1611.309 1611.656 1612.004 1612.358 1612.716 1613.073 1613.424 1613.761 1614.086 1614.396 1614.675 1614.867 1614.979 1615.199 1615.486 1615.771 1616.051 1616.33 1616.613 1616.881 1617.129 1617.359 1617.579 1617.798 1618.017 1618.238 1618.464 1618.696 1618.934 1619.181 1619.44 1619.71 1619.977 1620 1620 1620 1620 1620 1620 1620 1620 1620 1619.891 1619.533 1619.213 1619.04 1618.977 1619.017 1619.193 1619.477 1619.822 1620.176 1620.532 1620.89 1621.251 1621.613 1621.976 1622.337 1622.696 1623.046 1623.345 1623.566 1623.668 1623.741 1623.828 1623.928 1624.037 1624.154 1624.285 1624.428 1624.563 1624.689 1624.806 1624.906 1625.026 1625.32 1625.62 1625.914 1626.224 1626.593 1626.978 1627.37 1627.762 1628.148 1628.524 1628.886 1629.229 1629.546 1629.831 1630.222 1631.524 1632.796 1634.011 1634.818 1635.633 1636.193 1637.342 1638.297 1639.129 1640.109 1641.213 1642.324 1643.32 1644.007 1644.682 1645.656 1646.415 1646.751 1646.772 1647.37 1648.126 1649.004 1649.856 1650.523 1649.943 1649.439 1649.386 1649.434 1649.766 1649.262 1650.167 1650.365 1651.314 1651.698 1652.165 1652.937 1653.821 1654.457 1655.115 1655.74 1656.207 1657.166 1657.695 1658.169 1658.603 1659.094 1659.217 1659.527 1660.399 1660.719 1660.604 1660.527 1660.787 1660.795 1661.164 1661.296 1661.51 1661.98 1662.368 1662.538 1662.812 1663.143 1663.635 1664.011 1664.463 1664.994 1665.008 1664.571 1664.358 1664.405 1664.023 1663.664 1663.192 1663.008 1662.691 1662.488 1662.502 1662.407 1662.407 1662.614 1662.867 1662.951 1662.959 1662.89 1662.877 1662.488
1602.614 1602.805 1603.405 1603.091 1602.747 1603 1603.54 1603.884 1604.18 1604.369 1604.66 1604.899 1605.123 1605.286 1605.573 1605.801 1605.868 1606.096 1606.247 1606.215 1606.302 1605.98 1606.166 1605.742 1605.06 1604.9 1605.062 1604.212 1604.297 1604.38 1604.652 1604.774 1605.159 1605.912 1606.746 1606.911 1607.068 1607.244 1606.909 1607.113 1607.51 1607.598 1607.792 1608.145 1608.494 1608.533 1608.494 1608.619 1608.83 1609.101 1609.412 1609.74 1610.069 1610.386 1610.725 1611.071 1611.417 1611.773 1612.136 1612.501 1612.86 1613.206 1613.539 1613.859 1614.163 1614.441 1614.674 1614.854 1615.037 1615.293 1615.575 1615.855 1616.143 1616.417 1616.669 1616.909 1617.138 1617.359 1617.579 1617.799 1618.02 1618.242 1618.469 1618.703 1618.948 1619.204 1619.48 1619.786 1619.908 1619.882 1619.88 1619.899 1619.936 1619.986 1620 1620 1619.958 1619.515 1619.141 1618.889 1618.742 1618.679 1618.717 1618.865 1619.108 1619.416 1619.76 1620.109 1620.459 1620.813 1621.17 1621.525 1621.876 1622.222 1622.553 1622.829 1623.031 1623.143 1623.243 1623.355 1623.477 1623.607 1623.745 1623.893 1624.051 1624.206 1624.351 1624.488 1624.621 1624.756 1624.917 1625.124 1625.387 1625.717 1626.135 1626.577 1627.026 1627.474 1627.913 1628.343 1628.758 1629.155 1629.526 1629.86 1630.608 1631.91 1633.246 1634.624 1635.989 1637.321 1637.203 1637.93 1638.642 1639.431 1640.313 1641.361 1642.438 1643.401 1644.375 1645.129 1645.632 1645.43 1645.771 1646.076 1646.982 1647.856 1648.551 1649.765 1650.08 1649.452 1648.87 1648.784 1648.914 1648.94 1649.074 1649.81 1650.022 1650.383 1650.969 1651.905 1652.525 1653.027 1653.899 1654.361 1655.197 1655.668 1656.375 1657.206 1657.522 1657.992 1658.44 1658.319 1658.729 1659.479 1659.867 1659.772 1659.515 1659.805 1660.024 1660.184 1660.663 1660.72 1661.204 1661.398 1661.72 1661.862 1662.51 1662.991 1663.324 1663.698 1664.431 1664.657 1664.029 1663.573 1663.373 1662.983 1662.706 1662.492 1662.228 1662.161 1661.774 1661.776 1661.56 1661.891 1661.807 1662.018 1662.123 1662.162 1662.054 1662.046 1661.919
1602.412 1602.876 1602.833 1602.726 1602.651 1602.823 1602.84 1602.931 1603.484 1603.838 1604.255 1604.486 1604.753 1604.535 1604.685 1604.914 1605.269 1605.441 1605.687 1606.099 1606.398 1606.387 1606.344 1606.37 1606.068 1605.484 1605.233 1605.958 1604.47 1604.287 1604.169 1604.339 1604.673 1605.122 1605.859 1606.384 1606.935 1607.029 1607.054 1607.124 1607.016 1607.355 1607.385 1607.515 1607.851 1608.195 1608.119 1608.205 1608.541 1608.861 1609.173 1609.496 1609.821 1610.142 1610.485 1610.831 1611.182 1611.547 1611.92 1612.292 1612.651 1612.997 1613.328 1613.646 1613.948 1614.228 1614.476 1614.691 1614.884 1615.109 1615.385 1615.668 1615.956 1616.214 1616.455 1616.689 1616.913 1617.134 1617.353 1617.571 1617.785 1618 1618.219 1618.444 1618.676 1618.911 1619.148 1619.369 1619.477 1619.505 1619.535 1619.581 1619.645 1619.731 1619.822 1619.719 1619.406 1619.037 1618.719 1618.504 1618.376 1618.323 1618.376 1618.518 1618.739 1619.02 1619.347 1619.688 1620.031 1620.378 1620.729 1621.077 1621.418 1621.751 1622.065 1622.325 1622.51 1622.636 1622.76 1622.894 1623.038 1623.191 1623.349 1623.514 1623.687 1623.859 1624.024 1624.182 1624.336 1624.49 1624.653 1624.812 1624.944 1625.193 1625.684 1626.191 1626.699 1627.206 1627.707 1628.195 1628.669 1629.13 1629.567 1629.975 1631 1632.276 1633.556 1635.166 1636.249 1636.922 1637.909 1638.456 1639.156 1639.84 1640.613 1641.457 1642.58 1643.434 1644.254 1644.745 1644.777 1644.859 1644.81 1645.525 1646.39 1647.283 1648.257 1649.058 1648.901 1648.839 1648.346 1648.066 1648.2 1648.313 1648.295 1648.936 1649.233 1649.979 1650.561 1651.2 1652.027 1652.54 1653.117 1653.735 1654.802 1655.307 1656.057 1656.664 1656.821 1657.099 1657.411 1657.486 1657.93 1658.547 1658.796 1658.83 1658.658 1658.779 1659.182 1659.323 1659.735 1659.953 1660.337 1660.439 1660.906 1661.213 1661.612 1661.945 1662.292 1662.896 1663.411 1663.453 1663.278 1662.932 1662.566 1662.315 1661.962 1661.772 1661.611 1661.475 1661.065 1661.149 1661.154 1661.127 1661.221 1661.322 1661.429 1661.488 1661.459 1661.159 1661.146
1602.336 1602.708 1602.414 1602.62 1602.466 1602.589 1602.663 1602.71 1602.694 1603.191 1603.391 1603.439 1603.878 1603.832 1603.938 1604.323 1604.539 1604.823 1604.903 1605.642 1605.891 1606.114 1606.416 1606.499 1606.496 1606.426 1606.399 1605.625 1605.17 1604.595 1604.134 1604.104 1604.351 1604.679 1604.246 1605.444 1606.358 1606.678 1606.94 1607.001 1606.987 1606.891 1606.953 1607.062 1607.371 1607.812 1608.042 1608.032 1608.344 1608.653 1608.931 1609.269 1609.601 1609.904 1610.237 1610.587 1610.948 1611.326 1611.712 1612.09 1612.452 1612.799 1613.131 1613.449 1613.75 1614.03 1614.285 1614.514 1614.722 1614.938 1615.195 1615.485 1615.766 1616.01 1616.242 1616.468 1616.687 1616.904 1617.12 1617.33 1617.536 1617.742 1617.95 1618.161 1618.371 1618.576 1618.77 1618.937 1619.016 1619.025 1619.042 1619.074 1619.115 1619.148 1619.154 1619.062 1618.814 1618.518 1618.26 1618.078 1617.969 1617.937 1618.004 1618.148 1618.357 1618.624 1618.934 1619.269 1619.606 1619.946 1620.29 1620.632 1620.965 1621.287 1621.587 1621.831 1622.002 1622.139 1622.287 1622.444 1622.613 1622.786 1622.963 1623.144 1623.332 1623.518 1623.699 1623.873 1624.044 1624.216 1624.392 1624.576 1624.722 1624.887 1625.275 1625.82 1626.396 1626.983 1627.554 1628.107 1628.645 1629.177 1629.708 1630.423 1631.391 1632.556 1633.725 1634.711 1635.735 1636.484 1637.157 1637.895 1638.967 1639.709 1640.508 1641.437 1642.642 1643.391 1643.967 1643.95 1643.842 1643.66 1644.112 1645.403 1645.784 1646.515 1647.491 1647.957 1647.435 1647.731 1647.461 1647.105 1647.269 1647.496 1647.699 1648.01 1649.129 1649.567 1650.345 1651.252 1651.763 1652.149 1652.659 1653.288 1654.311 1654.891 1655.288 1655.87 1656.338 1656.542 1656.546 1656.979 1657.233 1657.697 1657.897 1657.739 1657.887 1658.297 1658.384 1658.621 1658.87 1658.939 1659.542 1659.859 1660.049 1660.344 1660.41 1661.069 1661.894 1662.065 1662.361 1662.465 1662.573 1662.243 1661.971 1661.591 1661.232 1661.045 1660.975 1660.78 1660.499 1660.38 1660.343 1660.423 1660.647 1660.67 1660.804 1660.613 1660.623 1660.472 1660.406
1602.26 1602.388 1602.609 1602.926 1602.344 1602.645 1602.428 1602.524 1602.67 1602.476 1602.787 1602.864 1603.052 1603.244 1603.134 1603.524 1603.938 1604.277 1604.41 1605.124 1605.025 1605.262 1605.836 1606.074 1606.357 1606.408 1606.571 1606.346 1605.72 1605.749 1605.169 1604.709 1604.597 1604.357 1604.427 1604.86 1605.374 1605.977 1606.474 1606.788 1606.955 1607.01 1606.969 1606.908 1607.119 1607.342 1607.83 1607.957 1608.188 1608.492 1608.795 1609.111 1609.424 1609.718 1610.015 1610.351 1610.717 1611.111 1611.512 1611.899 1612.266 1612.617 1612.95 1613.267 1613.566 1613.847 1614.106 1614.343 1614.561 1614.779 1615.002 1615.307 1615.578 1615.807 1616.028 1616.246 1616.459 1616.67 1616.878 1617.079 1617.276 1617.471 1617.666 1617.859 1618.044 1618.22 1618.377 1618.501 1618.552 1618.546 1618.54 1618.541 1618.544 1618.54 1618.509 1618.412 1618.22 1617.979 1617.77 1617.621 1617.536 1617.524 1617.606 1617.756 1617.962 1618.221 1618.523 1618.851 1619.184 1619.518 1619.855 1620.191 1620.518 1620.831 1621.121 1621.345 1621.495 1621.647 1621.824 1622.009 1622.202 1622.394 1622.587 1622.784 1622.984 1623.182 1623.375 1623.564 1623.75 1623.937 1624.128 1624.329 1624.506 1624.686 1624.939 1625.463 1626.155 1626.825 1627.47 1628.098 1628.717 1629.349 1630.053 1630.859 1631.739 1632.768 1633.545 1634.42 1635.288 1636.011 1636.991 1637.533 1638.502 1639.322 1640.281 1641.195 1642.067 1643.158 1643.262 1643.195 1642.847 1643.232 1644.101 1644.389 1645.438 1645.919 1646.461 1647.258 1646.658 1646.468 1646.74 1646.312 1646.613 1646.744 1647.056 1647.748 1648.717 1649.491 1650.043 1650.64 1651.076 1651.53 1652.324 1653.047 1654.072 1654.392 1654.864 1655.679 1655.593 1655.749 1655.897 1655.714 1656.495 1656.973 1656.998 1656.889 1656.824 1657.165 1657.556 1657.799 1658.127 1658.425 1658.707 1658.946 1659.48 1659.797 1660.145 1660.648 1661.127 1661.565 1661.719 1661.864 1661.941 1661.512 1661.074 1660.612 1660.505 1660.292 1660.122 1660.16 1659.809 1659.83 1659.865 1659.873 1659.775 1659.924 1659.976 1660.016 1659.953 1659.737 1659.56
1602.184 1602.485 1602.332 1602.653 1602.69 1602.608 1603.101 1602.806 1602.799 1602.61 1602.435 1602.788 1602.816 1602.714 1602.657 1602.928 1603.463 1603.772 1603.873 1604.171 1604.255 1604.716 1605.093 1605.342 1605.893 1605.949 1606.386 1606.665 1606.631 1606.555 1606.287 1605.6 1605.013 1604.279 1604.293 1604.32 1604.559 1605.236 1605.816 1606.253 1606.586 1606.891 1606.731 1606.771 1606.93 1607.08 1607.493 1607.722 1608.027 1608.342 1608.653 1608.955 1609.248 1609.535 1609.814 1610.126 1610.491 1610.904 1611.323 1611.721 1612.097 1612.451 1612.786 1613.1 1613.397 1613.676 1613.936 1614.177 1614.404 1614.633 1614.867 1615.14 1615.398 1615.609 1615.816 1616.023 1616.228 1616.433 1616.631 1616.821 1617.007 1617.19 1617.371 1617.543 1617.706 1617.854 1617.978 1618.062 1618.088 1618.068 1618.041 1618.013 1617.982 1617.945 1617.882 1617.774 1617.617 1617.422 1617.254 1617.14 1617.081 1617.089 1617.184 1617.344 1617.554 1617.812 1618.116 1618.444 1618.774 1619.105 1619.437 1619.766 1620.084 1620.388 1620.669 1620.865 1620.97 1621.157 1621.372 1621.591 1621.805 1622.014 1622.223 1622.437 1622.658 1622.877 1623.09 1623.293 1623.486 1623.672 1623.863 1624.079 1624.281 1624.488 1624.776 1625.25 1626.021 1626.777 1627.501 1628.213 1628.927 1629.645 1630.278 1631.137 1631.954 1632.605 1633.418 1634.291 1635.033 1635.788 1637.155 1637.981 1638.841 1639.786 1640.75 1641.406 1641.968 1642.264 1642.415 1641.768 1641.6 1642.538 1643.23 1644.042 1644.629 1644.781 1645.287 1646.091 1645.73 1645.222 1644.796 1645.372 1645.452 1646.178 1646.812 1647.6 1648.551 1649.028 1649.484 1649.915 1650.61 1651.312 1652.029 1652.643 1653.332 1653.857 1654.152 1654.929 1655.019 1654.931 1654.957 1655.136 1655.571 1655.824 1656.244 1656.194 1656.053 1656.419 1656.638 1657.027 1657.268 1657.578 1657.824 1658.202 1658.432 1659.032 1659.02 1659.767 1660.352 1660.819 1660.945 1661.166 1661.033 1660.474 1660.294 1659.964 1659.834 1659.452 1659.409 1659.418 1659.245 1659.06 1659.141 1659.178 1659.004 1659.179 1659.315 1659.248 1659.196 1659.074 1658.806
1602.108 1602.582 1602.016 1602.564 1602.525 1602.66 1602.58 1602.544 1602.666 1602.658 1602.756 1602.641 1602.649 1602.411 1602.622 1602.774 1603.207 1603.233 1603.485 1603.739 1603.964 1604.06 1604.484 1605.006 1605.426 1605.582 1606.026 1606.452 1606.743 1606.671 1606.666 1606.675 1605.726 1605.137 1604.666 1604.394 1604.668 1604.727 1604.851 1605.593 1606.13 1606.466 1606.726 1606.91 1607.045 1607.029 1607.1 1607.345 1607.856 1608.192 1608.496 1608.789 1609.075 1609.357 1609.634 1609.909 1610.256 1610.699 1611.144 1611.561 1611.946 1612.304 1612.637 1612.948 1613.24 1613.511 1613.767 1614.008 1614.245 1614.487 1614.736 1614.991 1615.232 1615.418 1615.606 1615.8 1615.996 1616.192 1616.379 1616.558 1616.732 1616.902 1617.067 1617.22 1617.359 1617.48 1617.572 1617.624 1617.625 1617.59 1617.545 1617.491 1617.432 1617.364 1617.271 1617.141 1616.997 1616.848 1616.72 1616.64 1616.611 1616.635 1616.744 1616.915 1617.135 1617.406 1617.72 1618.048 1618.378 1618.708 1619.037 1619.36 1619.674 1619.971 1620.245 1620.37 1620.416 1620.67 1620.948 1621.195 1621.427 1621.651 1621.885 1622.132 1622.379 1622.622 1622.857 1623.08 1623.291 1623.488 1623.669 1623.837 1624.047 1624.333 1624.717 1625.315 1626.094 1626.854 1627.623 1628.413 1629.198 1629.887 1630.4 1631.152 1631.89 1633.063 1633.689 1634.62 1635.55 1636.871 1637.643 1638.462 1639.343 1639.751 1640.426 1640.905 1640.93 1641.417 1641.121 1640.874 1640.88 1641.711 1642.685 1643.372 1643.619 1643.685 1643.985 1644.215 1644.358 1644.384 1644.009 1644.482 1644.975 1645.526 1647.058 1647.864 1648.252 1648.38 1648.944 1649.287 1650.141 1650.791 1651.501 1652.169 1652.727 1653.256 1653.689 1654.014 1654.399 1654.344 1654.242 1654.357 1654.761 1655.053 1655.138 1655.262 1655.339 1655.731 1656.023 1656.2 1656.423 1656.779 1657.372 1657.535 1657.901 1658.069 1658.453 1659.105 1659.592 1659.961 1660.151 1660.462 1660.322 1660.081 1659.611 1659.416 1658.897 1658.904 1658.779 1658.862 1658.585 1658.331 1658.401 1658.245 1658.371 1658.444 1658.412 1658.349 1658.327 1658.201 1658.026
1602.031 1602.728 1602.612 1602.685 1602.642 1602.816 1602.637 1601.846 1602.672 1602.627 1602.758 1602.612 1602.381 1602.523 1602.631 1602.803 1603.105 1603.132 1603.529 1603.633 1603.651 1604.026 1604.163 1604.711 1604.689 1604.844 1605.385 1605.995 1606.351 1606.433 1606.912 1606.687 1606.396 1606.115 1605.617 1605.007 1604.474 1604.429 1604.322 1604.851 1605.686 1606.068 1606.346 1606.819 1606.983 1607.095 1607.095 1607.174 1607.694 1608.047 1608.336 1608.623 1608.905 1609.183 1609.454 1609.727 1609.995 1610.498 1610.975 1611.418 1611.817 1612.177 1612.505 1612.803 1613.076 1613.334 1613.581 1613.82 1614.064 1614.318 1614.584 1614.859 1615.088 1615.237 1615.398 1615.578 1615.76 1615.947 1616.124 1616.292 1616.452 1616.608 1616.756 1616.891 1617.007 1617.101 1617.163 1617.187 1617.163 1617.114 1617.05 1616.975 1616.891 1616.795 1616.672 1616.507 1616.344 1616.241 1616.171 1616.128 1616.128 1616.168 1616.287 1616.47 1616.711 1617.008 1617.333 1617.665 1617.998 1618.331 1618.661 1618.981 1619.291 1619.588 1619.868 1619.973 1620 1620.249 1620.564 1620.829 1621.072 1621.325 1621.596 1621.871 1622.144 1622.41 1622.668 1622.914 1623.148 1623.366 1623.566 1623.737 1623.861 1624.287 1624.739 1625.337 1626.114 1626.884 1627.673 1628.503 1629.412 1630.081 1630.38 1631.15 1632.455 1633.906 1635.623 1635.103 1636.51 1637.423 1638.102 1638.43 1638.874 1639.229 1639.702 1639.867 1640.032 1640.36 1640 1639.856 1640.14 1640.884 1641.645 1642.354 1642.631 1642.804 1642.768 1643.379 1643.327 1643.008 1643.805 1644.125 1644.358 1645.032 1646.551 1647.382 1647.652 1647.713 1647.877 1648.595 1649.622 1650.172 1650.844 1651.253 1651.882 1652.676 1653.052 1653.531 1653.597 1653.138 1653.35 1653.397 1653.804 1654.426 1654.349 1654.282 1654.475 1654.756 1654.969 1655.349 1655.842 1656.019 1656.258 1656.738 1657.049 1657.036 1657.68 1658.458 1658.434 1659.094 1659.385 1659.638 1659.674 1659.418 1658.761 1658.469 1658.125 1657.961 1658.069 1658.161 1658.009 1657.652 1657.748 1657.67 1657.624 1657.699 1657.776 1657.511 1657.419 1657.33 1657.233
1601.955 1601.916 1602.654 1602.577 1603.147 1602.577 1602.63 1602.842 1602.571 1602.625 1603.014 1602.692 1602.725 1602.648 1602.628 1602.876 1602.985 1603.085 1603.174 1603.084 1603.471 1603.562 1603.617 1604.058 1603.978 1604.513 1604.749 1605.218 1605.637 1606.209 1606.441 1606.568 1606.748 1606.576 1606.308 1605.825 1605.194 1604.827 1604.513 1604.483 1604.985 1605.173 1605.747 1606.448 1606.904 1607.045 1607.201 1607.303 1607.291 1607.882 1608.169 1608.451 1608.732 1608.997 1609.272 1609.584 1609.924 1610.37 1610.844 1611.31 1611.722 1612.078 1612.378 1612.643 1612.896 1613.139 1613.375 1613.614 1613.861 1614.114 1614.373 1614.639 1614.89 1615.055 1615.194 1615.354 1615.523 1615.698 1615.866 1616.021 1616.168 1616.309 1616.441 1616.556 1616.649 1616.718 1616.755 1616.749 1616.707 1616.642 1616.559 1616.464 1616.358 1616.236 1616.082 1615.884 1615.651 1615.564 1615.607 1615.616 1615.634 1615.696 1615.816 1616.016 1616.292 1616.619 1616.957 1617.298 1617.639 1617.98 1618.315 1618.643 1618.957 1619.256 1619.526 1619.698 1619.843 1619.983 1620.228 1620.498 1620.755 1621.049 1621.348 1621.641 1621.931 1622.219 1622.503 1622.781 1623.049 1623.295 1623.525 1623.734 1623.982 1624.339 1624.761 1625.327 1626.054 1626.81 1627.598 1628.427 1629.285 1629.689 1630.415 1631.207 1632.399 1633.788 1634.746 1636.061 1636.644 1637.041 1637.393 1637.309 1637.962 1638.559 1638.865 1639.078 1639.263 1639.205 1639.033 1638.919 1639.578 1640.346 1641.454 1641.767 1641.723 1641.739 1641.938 1642.309 1642.326 1642.115 1643.244 1643.268 1644.202 1644.508 1645.81 1646.559 1646.975 1647.114 1647.438 1648.196 1648.932 1649.269 1650.151 1650.632 1651.489 1652.3 1652.68 1652.948 1652.981 1652.845 1652.635 1652.738 1653.162 1653.733 1653.249 1653.095 1653.555 1654.02 1654.218 1654.35 1654.801 1655.287 1655.659 1656.094 1656.24 1656.377 1656.837 1657.192 1657.747 1658.544 1658.764 1658.668 1658.867 1659.015 1658.399 1657.967 1657.36 1657.161 1657.509 1657.87 1657.338 1657.106 1657.058 1656.8 1656.858 1656.832 1656.908 1656.878 1656.606 1656.4 1656.402
1601.879 1601.656 1602.004 1601.98 1602.507 1602.778 1603.09 1602.939 1602.969 1603.034 1602.625 1602.699 1602.561 1602.535 1602.742 1602.911 1602.852 1602.812 1602.878 1602.876 1602.916 1602.982 1603.032 1603.489 1603.499 1604.013 1604.361 1604.752 1604.999 1605.488 1606.021 1606.321 1606.623 1606.826 1606.644 1606.414 1606.149 1605.329 1604.744 1604.354 1604.811 1604.839 1605.19 1606.077 1606.739 1607.144 1607.098 1607.15 1607.194 1607.656 1607.992 1608.311 1608.596 1608.848 1609.128 1609.484 1609.849 1610.282 1610.751 1611.221 1611.661 1611.983 1612.227 1612.461 1612.691 1612.918 1613.152 1613.389 1613.629 1613.872 1614.117 1614.361 1614.588 1614.787 1614.965 1615.123 1615.282 1615.445 1615.605 1615.75 1615.882 1616.006 1616.12 1616.216 1616.288 1616.333 1616.344 1616.315 1616.258 1616.178 1616.073 1615.959 1615.833 1615.682 1615.491 1615.254 1615.041 1615 1615.012 1615.106 1615.146 1615.215 1615.346 1615.567 1615.882 1616.233 1616.591 1616.949 1617.307 1617.66 1618.007 1618.339 1618.654 1618.947 1619.195 1619.376 1619.548 1619.736 1619.94 1620.182 1620.482 1620.781 1621.082 1621.384 1621.689 1621.996 1622.305 1622.616 1622.927 1623.237 1623.532 1623.792 1624.101 1624.436 1624.808 1625.286 1625.931 1626.628 1627.358 1628.103 1628.8 1629.344 1630.311 1631.067 1632.078 1632.837 1633.92 1635.198 1635.896 1636.38 1636.399 1636.535 1637.222 1638.058 1637.889 1637.999 1638.402 1638.251 1637.977 1638.416 1638.751 1639.572 1640.689 1640.889 1640.591 1640.854 1640.975 1640.965 1641.053 1641.597 1642.378 1642.9 1643.561 1644.007 1644.921 1645.771 1645.999 1646.505 1646.844 1647.769 1648.029 1648.772 1649.249 1650.059 1651.162 1651.721 1651.949 1652.048 1652.214 1651.941 1651.988 1651.986 1652.44 1652.64 1652.528 1652.502 1652.923 1653.297 1653.467 1653.762 1654.183 1654.488 1654.99 1655.089 1655.388 1655.802 1655.815 1656.375 1657.372 1658.313 1658.057 1657.72 1658.38 1658.291 1657.581 1656.991 1656.441 1656.478 1657.167 1657.368 1656.967 1656.481 1656.272 1656.12 1656.196 1656.085 1656.172 1655.926 1655.95 1655.593 1655.563
1601.803 1601.8 1601.735 1601.621 1601.938 1602.106 1602.101 1602.245 1602.447 1602.616 1602.977 1602.928 1603.041 1602.673 1602.932 1602.841 1602.719 1602.748 1602.642 1602.891 1602.883 1602.578 1603.144 1602.948 1603.199 1603.49 1603.881 1604.3 1604.44 1604.951 1605.299 1605.668 1606.238 1606.577 1606.668 1606.471 1606.559 1606.067 1605.447 1604.652 1604.627 1604.529 1605.135 1605.739 1606.194 1606.758 1607.713 1607.077 1607.031 1607.386 1607.884 1608.245 1608.504 1608.756 1609.042 1609.389 1609.778 1610.214 1610.678 1611.141 1611.583 1611.818 1612.023 1612.235 1612.454 1612.681 1612.913 1613.147 1613.382 1613.616 1613.849 1614.079 1614.291 1614.49 1614.682 1614.867 1615.039 1615.192 1615.345 1615.482 1615.598 1615.701 1615.792 1615.869 1615.921 1615.942 1615.93 1615.888 1615.821 1615.722 1615.601 1615.47 1615.315 1615.119 1614.946 1614.863 1614.803 1614.777 1614.776 1614.793 1614.823 1614.877 1614.957 1615.102 1615.472 1615.863 1616.249 1616.63 1617.002 1617.368 1617.724 1618.058 1618.364 1618.631 1618.85 1619.02 1619.19 1619.378 1619.587 1619.863 1620.17 1620.478 1620.789 1621.106 1621.427 1621.753 1622.085 1622.423 1622.77 1623.126 1623.491 1623.875 1624.217 1624.545 1624.907 1625.327 1625.848 1626.434 1627.057 1627.734 1628.78 1629.24 1630.005 1630.754 1631.619 1632.764 1633.962 1634.782 1634.935 1635.097 1635.356 1635.6 1636.407 1637.206 1637.097 1637.038 1637.526 1637.536 1637.085 1637.795 1638.386 1639.088 1639.773 1639.782 1639.823 1639.829 1639.913 1639.832 1640.603 1641.325 1642.14 1642.581 1643.03 1643.573 1644.331 1644.525 1644.727 1645.817 1646.484 1647.119 1647.591 1648.229 1648.881 1649.557 1650.64 1651.106 1651.462 1651.626 1651.371 1651.169 1651.205 1651.285 1651.788 1651.949 1651.803 1651.95 1652.136 1652.237 1652.771 1652.914 1653.498 1653.778 1654.317 1654.339 1654.627 1655.044 1655.341 1656.056 1657.21 1657.452 1656.878 1657.025 1657.4 1657.74 1657.52 1656.455 1655.37 1655.455 1656.493 1656.341 1656.165 1655.866 1655.368 1655.377 1655.281 1655.431 1655.482 1655.01 1654.723 1654.658 1654.811
1601.727 1601.633 1601.588 1601.551 1601.736 1601.762 1601.726 1601.824 1601.461 1602.138 1602.091 1602.168 1602.181 1602.684 1602.509 1602.497 1602.322 1602.042 1601.789 1601.986 1602.187 1601.958 1601.704 1602.302 1602.644 1602.865 1603.303 1603.758 1603.983 1604.465 1604.736 1605.239 1605.785 1606.201 1606.514 1606.473 1606.574 1606.498 1606.183 1605.457 1604.529 1604.478 1604.303 1605.604 1606.092 1606.597 1606.892 1607.018 1606.823 1607.056 1607.589 1608.22 1608.425 1608.675 1608.948 1609.291 1609.703 1610.152 1610.599 1610.965 1611.288 1611.538 1611.76 1611.979 1612.203 1612.432 1612.663 1612.894 1613.124 1613.352 1613.577 1613.794 1613.999 1614.196 1614.385 1614.57 1614.751 1614.933 1615.078 1615.214 1615.313 1615.389 1615.452 1615.503 1615.536 1615.543 1615.523 1615.476 1615.393 1615.275 1615.154 1615.015 1614.868 1614.742 1614.642 1614.567 1614.519 1614.495 1614.496 1614.525 1614.576 1614.646 1614.739 1614.879 1615.133 1615.518 1615.935 1616.341 1616.731 1617.109 1617.471 1617.794 1618.068 1618.298 1618.485 1618.639 1618.801 1618.975 1619.191 1619.507 1619.833 1620.16 1620.485 1620.816 1621.152 1621.496 1621.848 1622.21 1622.585 1622.974 1623.391 1623.84 1624.303 1624.655 1625.02 1625.41 1625.854 1626.349 1626.829 1627.509 1628.391 1629.168 1630.183 1631.673 1632.405 1633.358 1634.047 1633.921 1633.789 1634.203 1634.156 1634.869 1635.907 1636.226 1635.975 1636.062 1636.663 1636.547 1636.647 1637.047 1637.758 1638.399 1638.97 1638.913 1638.816 1638.907 1638.761 1639.656 1640.417 1640.921 1641.548 1642.158 1642.356 1642.902 1643.328 1643.623 1644.14 1645.506 1646.177 1646.586 1647.223 1647.912 1648.824 1649.692 1650.139 1650.795 1651.12 1651.274 1650.702 1650.193 1650.397 1650.753 1650.978 1651.093 1651.233 1651.058 1651.436 1651.55 1651.925 1652.173 1652.671 1653.007 1653.232 1653.557 1653.818 1654.324 1654.702 1655.62 1656.711 1656.716 1656.101 1655.921 1656.409 1656.886 1656.815 1655.867 1654.758 1654.885 1655.524 1655.88 1655.146 1654.378 1654.252 1654.193 1653.876 1654.698 1654.599 1654.491 1654.187 1654.069 1654.084
1601.651 1601.722 1601.787 1601.395 1601.567 1601.744 1601.767 1601.546 1601.729 1601.613 1601.5 1601.734 1601.81 1601.636 1601.726 1601.947 1601.828 1601.584 1601.548 1601.682 1601.616 1601.585 1601.698 1601.93 1602.002 1602.329 1602.83 1603.263 1603.665 1604.043 1604.233 1604.638 1605.22 1605.605 1606.425 1606.639 1606.625 1606.43 1606.333 1605.754 1605.026 1604.312 1604.477 1604.864 1605.726 1606.403 1606.808 1606.886 1606.883 1606.913 1607.305 1607.973 1608.323 1608.613 1608.864 1609.178 1609.625 1610.083 1610.394 1610.698 1610.988 1611.244 1611.48 1611.709 1611.941 1612.173 1612.406 1612.635 1612.862 1613.084 1613.302 1613.511 1613.712 1613.907 1614.095 1614.275 1614.449 1614.615 1614.765 1614.928 1615.026 1615.054 1615.079 1615.102 1615.12 1615.138 1615.138 1615.068 1614.963 1614.862 1614.763 1614.644 1614.521 1614.412 1614.324 1614.26 1614.218 1614.205 1614.223 1614.266 1614.334 1614.422 1614.536 1614.693 1614.911 1615.209 1615.59 1616.035 1616.48 1616.886 1617.24 1617.524 1617.756 1617.947 1618.097 1618.237 1618.387 1618.554 1618.813 1619.139 1619.479 1619.827 1620.171 1620.516 1620.867 1621.226 1621.594 1621.975 1622.37 1622.788 1623.232 1623.709 1624.23 1624.764 1625.085 1625.374 1625.765 1626.367 1626.843 1627.95 1628.87 1629.374 1631.231 1631.979 1632.65 1632.691 1632.638 1632.858 1632.613 1632.822 1633.306 1634.466 1635.441 1635.058 1635.081 1635.33 1635.684 1635.425 1635.891 1636.473 1636.974 1637.601 1637.8 1637.542 1637.935 1637.95 1638.324 1639.211 1639.727 1640.132 1640.804 1641.107 1641.84 1642.464 1642.598 1643.012 1643.551 1645.113 1646.112 1646.68 1647.172 1647.819 1649.017 1649.701 1650.492 1650.816 1651.015 1650.438 1650.061 1649.712 1649.664 1650.46 1650.499 1650.286 1650.204 1650.202 1650.56 1650.972 1651.226 1651.628 1651.969 1652.226 1652.404 1652.907 1653.232 1653.448 1654.492 1655.617 1656.291 1655.982 1655.403 1654.897 1655.177 1656.226 1655.896 1655.172 1654.08 1653.944 1654.563 1655.197 1654.802 1653.312 1652.92 1653.226 1652.972 1653.711 1653.717 1653.67 1653.448 1653.431 1653.357
1601.575 1601.53 1601.728 1601.71 1601.507 1601.464 1601.509 1601.586 1601.504 1601.644 1601.494 1601.586 1601.469 1601.674 1601.489 1601.748 1601.521 1601.625 1601.633 1601.581 1601.801 1601.455 1601.583 1601.66 1601.698 1602.044 1602.107 1602.655 1603.121 1603.575 1604.044 1604.325 1604.835 1605.41 1606.063 1606.462 1606.527 1606.491 1606.382 1606.332 1605.728 1604.728 1604.615 1604.564 1605.651 1606.569 1606.64 1606.887 1606.927 1607.076 1607.288 1607.767 1608.393 1608.654 1608.874 1609.082 1609.486 1609.819 1610.118 1610.409 1610.693 1610.951 1611.192 1611.433 1611.673 1611.91 1612.144 1612.372 1612.596 1612.814 1613.026 1613.232 1613.432 1613.625 1613.81 1613.988 1614.157 1614.316 1614.458 1614.573 1614.625 1614.662 1614.693 1614.719 1614.742 1614.759 1614.749 1614.692 1614.598 1614.5 1614.394 1614.278 1614.168 1614.072 1613.995 1613.938 1613.911 1613.916 1613.948 1614.004 1614.081 1614.18 1614.308 1614.469 1614.673 1614.935 1615.261 1615.657 1616.157 1616.657 1617.006 1617.24 1617.416 1617.558 1617.683 1617.817 1617.956 1618.145 1618.425 1618.76 1619.112 1619.475 1619.838 1620.199 1620.564 1620.936 1621.319 1621.714 1622.126 1622.558 1623.017 1623.512 1624.054 1624.672 1625.12 1625.337 1625.569 1626.174 1627.446 1629.122 1629.566 1630.497 1630.981 1631.546 1631.442 1631.446 1631.891 1631.549 1631.43 1632.188 1633.118 1634.373 1634.709 1634.161 1633.785 1633.85 1634.557 1634.902 1635.227 1635.625 1636.465 1636.83 1636.729 1637.184 1637.247 1637.613 1637.879 1638.676 1639.149 1639.695 1640.323 1640.57 1641.148 1641.433 1642.008 1642.41 1643.168 1644.633 1645.739 1646.367 1647.346 1648.288 1649.231 1649.975 1650.265 1650.508 1650.436 1650.254 1649.685 1649.083 1648.883 1649.813 1649.535 1649.606 1649.5 1649.541 1649.261 1649.897 1650.464 1650.988 1651.342 1651.544 1651.783 1652.141 1652.414 1653.307 1654.662 1655.378 1655.664 1655.299 1654.654 1653.605 1654.535 1655.188 1655.051 1654.192 1653.304 1653.085 1653.502 1654.197 1654.036 1652.725 1652.411 1651.503 1651.892 1652.698 1652.844 1652.845 1652.717 1652.702 1652.674
1601.499 1601.636 1601.555 1601.359 1601.572 1601.595 1601.697 1601.956 1601.753 1601.26 1601.635 1601.635 1601.4 1601.359 1601.604 1601.469 1601.525 1601.633 1601.71 1601.517 1601.737 1601.648 1601.502 1601.571 1601.594 1601.623 1601.713 1602.071 1602.76 1603.09 1603.503 1604.035 1604.517 1605.297 1605.636 1606.161 1606.198 1606.516 1606.331 1606.22 1605.474 1604.745 1604.339 1604.176 1605.3 1606.386 1606.801 1606.89 1606.849 1606.855 1607.235 1607.722 1608.206 1608.727 1608.945 1608.992 1609.259 1609.556 1609.838 1610.121 1610.401 1610.662 1610.905 1611.154 1611.402 1611.644 1611.879 1612.107 1612.329 1612.544 1612.754 1612.958 1613.156 1613.346 1613.529 1613.705 1613.871 1614.022 1614.147 1614.235 1614.28 1614.314 1614.344 1614.371 1614.387 1614.384 1614.355 1614.305 1614.235 1614.139 1614.031 1613.92 1613.816 1613.728 1613.657 1613.611 1613.6 1613.62 1613.663 1613.727 1613.809 1613.915 1614.049 1614.21 1614.404 1614.64 1614.928 1615.278 1615.714 1616.355 1616.769 1616.9 1617.005 1617.116 1617.242 1617.375 1617.514 1617.734 1618.028 1618.368 1618.734 1619.111 1619.487 1619.862 1620.24 1620.624 1621.018 1621.423 1621.845 1622.287 1622.757 1623.261 1623.809 1624.398 1625.016 1625.417 1625.435 1626.461 1628.671 1629.447 1629.706 1629.795 1629.742 1630.475 1630.105 1630.15 1630.589 1630.255 1630.84 1631.882 1633.114 1633.783 1633.372 1633.103 1633.213 1633.217 1633.537 1634.022 1634.459 1634.832 1635.344 1635.749 1635.636 1635.873 1636.22 1636.939 1637.639 1638.195 1638.641 1639.169 1639.585 1639.748 1640.197 1641.043 1641.683 1642.14 1643.233 1644.489 1645.815 1646.531 1647.294 1648.309 1649.135 1649.817 1649.914 1649.989 1650.141 1649.946 1649.255 1648.501 1647.927 1648.779 1648.488 1648.75 1648.374 1648.661 1648.685 1649.184 1649.797 1650.268 1650.546 1650.725 1651.037 1651.414 1652.016 1653.278 1654.272 1654.95 1654.537 1654.435 1653.94 1653.009 1653.69 1654.287 1654.017 1653.088 1652.227 1652.605 1652.729 1653.336 1653.276 1651.891 1651.216 1650.975 1651.01 1651.59 1651.788 1651.956 1652.072 1652.006 1651.903
1601.423 1601.56 1601.82 1601.438 1601.662 1601.347 1601.743 1602.22 1601.801 1601.343 1601.602 1601.152 1602.348 1601.708 1601.49 1601.96 1601.511 1601.558 1601.56 1601.584 1601.486 1601.523 1601.547 1601.755 1601.495 1601.519 1601.634 1601.838 1602.206 1602.818 1603.328 1603.761 1604.736 1604.938 1605.443 1605.875 1605.997 1606.395 1606.341 1606.446 1606.017 1604.97 1604.549 1604.236 1605.067 1606.139 1606.864 1606.986 1606.95 1606.658 1606.947 1607.591 1608.299 1608.855 1608.946 1608.979 1609.125 1609.339 1609.581 1609.84 1610.113 1610.375 1610.621 1610.877 1611.131 1611.377 1611.614 1611.842 1612.064 1612.278 1612.487 1612.689 1612.884 1613.072 1613.252 1613.423 1613.578 1613.714 1613.82 1613.9 1613.949 1613.981 1614.008 1614.022 1614.024 1614.008 1613.974 1613.926 1613.862 1613.777 1613.671 1613.563 1613.464 1613.379 1613.314 1613.282 1613.283 1613.312 1613.364 1613.434 1613.522 1613.631 1613.766 1613.925 1614.11 1614.328 1614.578 1614.87 1615.207 1615.734 1616.359 1616.405 1616.513 1616.642 1616.778 1616.915 1617.068 1617.314 1617.62 1617.966 1618.344 1618.734 1619.121 1619.506 1619.895 1620.288 1620.691 1621.103 1621.531 1621.98 1622.453 1622.957 1623.493 1624.026 1624.666 1625.551 1626.301 1627.538 1628.652 1629.195 1629.541 1628.825 1628.812 1629.467 1629.27 1629.291 1629.496 1629.531 1630.76 1631.535 1632.262 1632.675 1632.219 1632.008 1631.99 1632.502 1632.857 1633.049 1633.49 1634.407 1634.543 1634.79 1635.245 1635.114 1635.891 1636.57 1637.1 1637.828 1637.799 1638.81 1638.948 1639.468 1640.254 1641.08 1641.877 1642.593 1643.723 1644.744 1645.568 1646.449 1647.253 1647.837 1648.448 1648.717 1648.922 1649.155 1649.284 1649.136 1648.676 1647.576 1647.199 1647.372 1647.287 1647.916 1647.786 1647.631 1647.934 1648.381 1649.279 1649.552 1649.938 1650.023 1650.412 1650.904 1652.107 1653.149 1654.273 1654.288 1654.105 1653.736 1653.201 1652.164 1652.911 1653.282 1653.001 1652.599 1651.364 1651.704 1652.087 1652.759 1652.148 1651.259 1650.778 1649.869 1650.005 1650.819 1650.921 1651.129 1651.391 1651.195 1651.11
1601.347 1601.813 1601.583 1601.607 1601.754 1601.65 1601.468 1601.61 1601.424 1601.455 1601.594 1601.578 1601.604 1601.685 1601.644 1601.535 1601.475 1601.583 1601.509 1601.553 1601.546 1601.542 1601.436 1601.588 1601.474 1601.598 1601.406 1601.684 1601.772 1601.99 1602.819 1603.414 1604.249 1604.906 1604.951 1605.411 1605.525 1606.183 1606.482 1606.345 1605.939 1605.04 1604.481 1603.985 1605.008 1606.117 1606.681 1606.758 1606.682 1606.65 1606.966 1607.663 1608.14 1608.991 1608.982 1608.98 1609.035 1609.157 1609.339 1609.568 1609.83 1610.089 1610.337 1610.603 1610.865 1611.115 1611.354 1611.583 1611.803 1612.017 1612.223 1612.422 1612.615 1612.8 1612.976 1613.135 1613.278 1613.399 1613.496 1613.569 1613.619 1613.651 1613.67 1613.675 1613.666 1613.641 1613.604 1613.554 1613.492 1613.412 1613.313 1613.207 1613.11 1613.027 1612.968 1612.946 1612.956 1612.993 1613.052 1613.128 1613.221 1613.332 1613.466 1613.621 1613.799 1614 1614.226 1614.474 1614.733 1614.964 1615.397 1615.752 1615.958 1616.134 1616.296 1616.444 1616.616 1616.884 1617.202 1617.558 1617.944 1618.345 1618.74 1619.134 1619.53 1619.931 1620.339 1620.756 1621.188 1621.637 1622.107 1622.6 1623.104 1623.621 1624.275 1625.316 1626.782 1627.607 1628.234 1628.358 1628.212 1627.721 1627.454 1628.414 1627.964 1627.939 1627.937 1628.488 1629.881 1630.754 1631.898 1631.392 1631.428 1631.019 1631.582 1631.945 1632.368 1632.888 1633.125 1633.433 1633.718 1633.812 1634.501 1635.151 1635.617 1636.073 1636.755 1637.159 1637.502 1638.112 1638.624 1639.211 1640.562 1641.214 1642.003 1642.72 1643.83 1645.025 1645.547 1646.19 1646.754 1647.143 1647.647 1647.796 1647.933 1648.121 1648.338 1648.346 1647.554 1647.027 1646.342 1646.139 1646.512 1646.882 1646.712 1646.901 1647.343 1647.704 1648.297 1648.695 1648.81 1649.351 1650.234 1651.105 1652.249 1653.172 1653.455 1653.624 1653.252 1653.031 1652.29 1651.561 1651.537 1652.182 1652.294 1651.651 1650.516 1651.112 1651.524 1651.796 1651.018 1650.824 1649.34 1649.121 1649.198 1649.696 1649.988 1650.337 1650.405 1650.498 1650.454
1601.271 1601.698 1601.78 1601.732 1601.695 1601.579 1601.632 1601.527 1601.714 1601.42 1601.55 1601.718 1601.734 1601.57 1601.527 1601.26 1601.623 1601.59 1601.704 1601.452 1601.562 1601.713 1601.724 1601.672 1601.88 1601.614 1601.553 1601.691 1601.637 1601.843 1601.956 1603.026 1603.493 1604.045 1604.584 1604.926 1605.432 1605.894 1606.542 1606.292 1606.144 1605.078 1604.801 1604.141 1604.679 1605.531 1606.83 1606.681 1606.649 1606.72 1606.851 1607.494 1608.052 1608.792 1609.2 1608.99 1609.024 1609.038 1609.101 1609.304 1609.563 1609.81 1610.052 1610.334 1610.604 1610.86 1611.1 1611.328 1611.548 1611.76 1611.964 1612.16 1612.349 1612.53 1612.696 1612.845 1612.977 1613.087 1613.174 1613.242 1613.29 1613.32 1613.333 1613.33 1613.314 1613.283 1613.241 1613.19 1613.126 1613.048 1612.955 1612.851 1612.754 1612.671 1612.618 1612.604 1612.621 1612.664 1612.729 1612.811 1612.907 1613.02 1613.153 1613.304 1613.473 1613.662 1613.869 1614.089 1614.312 1614.522 1614.765 1615.095 1615.363 1615.587 1615.791 1615.963 1616.155 1616.444 1616.78 1617.148 1617.541 1617.943 1618.345 1618.746 1619.147 1619.552 1619.963 1620.382 1620.812 1621.257 1621.716 1622.185 1622.665 1623.186 1623.848 1624.934 1626.606 1626.986 1627.01 1627.495 1627.286 1626.64 1627.116 1627.385 1627.016 1626.896 1626.897 1628.028 1629.175 1630.283 1630.876 1630.095 1630.411 1630.079 1630.821 1631.292 1631.578 1631.729 1631.877 1632.529 1632.888 1633.601 1634.208 1634.727 1635.19 1635.516 1635.918 1635.998 1637.082 1637.769 1638.287 1639.388 1640.518 1641.593 1642.214 1642.711 1643.346 1644.266 1645.125 1645.457 1645.787 1646.436 1646.632 1646.76 1646.184 1647.281 1647.46 1647.32 1646.756 1646.306 1645.651 1645.362 1645.554 1645.868 1645.916 1646.113 1646.453 1646.803 1647.453 1647.932 1648.082 1649.04 1650.042 1650.916 1651.818 1652.207 1652.583 1652.632 1652.418 1652.267 1651.491 1650.954 1650.897 1651.074 1650.859 1650.631 1650.032 1650.106 1650.613 1651.376 1650.72 1649.828 1649.159 1648.051 1648.792 1649.049 1648.968 1649.449 1649.743 1649.713 1649.752
1601.195 1601.643 1601.593 1601.784 1601.749 1601.769 1601.559 1601.516 1601.742 1601.695 1601.482 1601.545 1601.481 1601.704 1601.695 1601.688 1601.309 1601.342 1601.537 1601.627 1601.444 1601.681 1601.553 1601.56 1601.786 1601.671 1601.705 1601.596 1601.525 1601.716 1601.744 1602.472 1602.875 1603.388 1603.917 1604.404 1605.137 1605.593 1606.206 1606.257 1606.126 1605.31 1604.722 1604.064 1604.592 1605.675 1606.075 1606.853 1606.762 1606.646 1607.069 1607.461 1608.263 1608.7 1609.209 1609.016 1609.125 1609.065 1609.003 1609.19 1609.451 1609.701 1609.895 1610.102 1610.359 1610.613 1610.853 1611.081 1611.299 1611.508 1611.708 1611.901 1612.086 1612.26 1612.416 1612.555 1612.676 1612.776 1612.856 1612.919 1612.964 1612.99 1612.996 1612.988 1612.966 1612.931 1612.885 1612.83 1612.766 1612.688 1612.596 1612.494 1612.396 1612.313 1612.263 1612.253 1612.276 1612.326 1612.397 1612.484 1612.585 1612.7 1612.83 1612.977 1613.138 1613.316 1613.508 1613.71 1613.917 1614.136 1614.337 1614.574 1614.829 1615.058 1615.269 1615.472 1615.685 1616.001 1616.359 1616.743 1617.136 1617.533 1617.935 1618.339 1618.744 1619.151 1619.562 1619.979 1620.403 1620.836 1621.277 1621.729 1622.204 1622.723 1623.406 1624.244 1625.264 1625.874 1626.245 1625.975 1625.861 1625.354 1625.271 1626.482 1626.33 1625.925 1626.569 1627.667 1629.012 1629.097 1629.854 1629.302 1629.368 1629.656 1630.236 1630.543 1630.949 1631.132 1631.726 1631.772 1632.546 1633.262 1633.907 1634.465 1634.935 1635.198 1635.649 1636.181 1636.537 1637.417 1638.712 1639.859 1640.614 1641.404 1641.782 1642.424 1643.019 1643.603 1644.05 1644.497 1644.802 1645.374 1645.88 1645.938 1645.887 1646.283 1646.419 1646.352 1645.932 1645.543 1644.733 1644.481 1644.624 1644.983 1644.836 1645.247 1645.65 1646.073 1646.664 1647.149 1647.963 1648.991 1649.776 1650.569 1651.023 1651.481 1651.805 1651.514 1651.614 1651.622 1651.003 1650.326 1649.969 1650.015 1650.005 1649.826 1649.269 1649.205 1649.675 1650.095 1649.977 1648.952 1648.499 1647.599 1648.041 1648.232 1648.47 1648.915 1648.774 1649.036 1648.73
1601.119 1601.177 1601.611 1601.706 1601.824 1601.572 1601.667 1601.477 1601.582 1602.02 1601.762 1601.753 1601.364 1601.401 1601.605 1601.677 1601.158 1601.262 1601.306 1601.529 1601.508 1601.598 1601.711 1601.646 1601.533 1601.715 1601.628 1601.595 1601.589 1601.52 1601.788 1602.293 1602.637 1602.956 1603.392 1603.967 1604.688 1605.3 1605.995 1606.177 1606.108 1605.756 1604.906 1604.303 1604.529 1605.636 1606.521 1606.52 1606.522 1606.599 1606.869 1607.893 1608.532 1608.899 1609.18 1609.062 1609.191 1609.076 1608.996 1609.193 1609.428 1609.615 1609.776 1609.927 1610.146 1610.385 1610.618 1610.842 1611.057 1611.261 1611.457 1611.645 1611.825 1611.99 1612.137 1612.266 1612.378 1612.468 1612.541 1612.598 1612.64 1612.661 1612.663 1612.649 1612.623 1612.584 1612.534 1612.476 1612.408 1612.33 1612.239 1612.137 1612.037 1611.952 1611.903 1611.895 1611.924 1611.98 1612.058 1612.149 1612.254 1612.371 1612.501 1612.643 1612.798 1612.967 1613.148 1613.341 1613.543 1613.748 1613.939 1614.139 1614.355 1614.571 1614.781 1614.98 1615.216 1615.576 1615.954 1616.339 1616.728 1617.122 1617.518 1617.918 1618.32 1618.724 1619.132 1619.544 1619.959 1620.38 1620.812 1621.257 1621.723 1622.231 1622.944 1623.562 1623.788 1624.5 1624.659 1624.375 1624.501 1624.345 1624.888 1624.647 1625.629 1625.431 1625.978 1627.224 1627.974 1628.702 1628.309 1628.469 1628.823 1629.041 1629.708 1629.945 1630.247 1630.596 1631.518 1631.42 1632.161 1632.771 1633.399 1633.829 1634.731 1634.829 1635.431 1635.987 1636.7 1637.6 1638.453 1639.44 1640.182 1640.756 1641.257 1641.964 1642.716 1643.265 1643.698 1643.787 1643.985 1644.288 1644.273 1644.933 1644.894 1645.475 1645.236 1645.782 1645.177 1644.772 1644.161 1643.713 1643.942 1644.086 1643.992 1644.399 1644.909 1645.228 1645.836 1646.73 1647.831 1648.632 1649.37 1649.836 1650.211 1650.864 1650.893 1650.856 1650.821 1650.628 1649.95 1649.152 1649.032 1648.965 1649.031 1648.77 1648.501 1648.584 1648.985 1649.386 1649.119 1648.249 1647.637 1646.832 1647.414 1647.306 1647.664 1648.112 1648.142 1648.152 1648.184
1601.042 1601.129 1601.094 1601.214 1601.708 1601.699 1601.893 1601.838 1601.443 1601.749 1601.823 1601.805 1601.455 1601.434 1601.825 1601.968 1601.705 1601.924 1601.05 1601.297 1601.299 1601.619 1601.623 1601.68 1601.635 1601.598 1601.648 1601.546 1601.626 1601.465 1601.869 1602.083 1602.39 1602.775 1602.915 1603.595 1604.462 1605.109 1605.778 1606.164 1606.171 1605.997 1605.046 1604.413 1604.443 1605.552 1606.023 1606.474 1606.396 1606.749 1607.133 1608.038 1608.945 1609.087 1609.05 1609.207 1609.182 1609.327 1608.958 1609.177 1609.372 1609.528 1609.666 1609.794 1609.953 1610.171 1610.395 1610.613 1610.822 1611.02 1611.209 1611.392 1611.565 1611.721 1611.859 1611.979 1612.081 1612.163 1612.229 1612.281 1612.318 1612.335 1612.333 1612.315 1612.284 1612.242 1612.188 1612.126 1612.055 1611.974 1611.883 1611.78 1611.678 1611.588 1611.535 1611.529 1611.564 1611.629 1611.713 1611.809 1611.916 1612.035 1612.165 1612.305 1612.455 1612.617 1612.79 1612.974 1613.164 1613.356 1613.539 1613.739 1613.948 1614.156 1614.37 1614.592 1614.844 1615.184 1615.553 1615.933 1616.318 1616.708 1617.099 1617.493 1617.889 1618.286 1618.687 1619.092 1619.5 1619.914 1620.335 1620.769 1621.223 1621.729 1622.131 1622.227 1622.677 1623.113 1623.116 1622.933 1622.783 1623.321 1623.407 1623.787 1624.133 1624.539 1625.579 1626.27 1627.119 1627.591 1627.438 1627.462 1628.004 1628.698 1628.979 1629.271 1629.845 1630.286 1630.898 1631.083 1631.667 1632.1 1632.731 1633.578 1634.135 1634.738 1635.393 1635.832 1636.714 1637.644 1638.273 1638.862 1639.752 1639.948 1640.797 1641.667 1642.394 1642.999 1642.893 1642.756 1642.984 1643.397 1643.42 1643.466 1643.492 1644.549 1644.361 1644.491 1644.192 1643.303 1643.081 1642.755 1643.154 1643.468 1643.642 1643.907 1644.117 1644.826 1645.593 1646.81 1647.779 1648.06 1648.424 1649.056 1649.598 1650 1649.762 1650.159 1650.12 1649.608 1649.221 1648.875 1648.52 1648.051 1648.08 1648.323 1648.136 1647.841 1648.301 1648.638 1648.314 1647.717 1646.96 1646.335 1646.567 1646.341 1646.979 1647.351 1647.56 1647.488 1647.497
1600.966 1601.072 1601.154 1601.013 1601.319 1601.511 1601.781 1602.139 1601.932 1601.643 1601.931 1601.5 1601.365 1601.824 1601.531 1601.607 1601.375 1601.409 1601.103 1601.326 1601.368 1601.395 1601.584 1601.606 1601.564 1601.567 1601.595 1601.508 1601.517 1601.495 1601.505 1601.921 1602.622 1602.985 1603.082 1603.646 1604.394 1604.828 1605.665 1606.212 1606.089 1605.866 1605.099 1604.072 1604.316 1605.491 1606.044 1606.233 1606.49 1606.662 1607.279 1607.865 1608.892 1609.318 1609.196 1609.152 1609.116 1609.176 1608.936 1609.151 1609.318 1609.448 1609.561 1609.667 1609.788 1609.963 1610.181 1610.392 1610.593 1610.783 1610.965 1611.141 1611.307 1611.455 1611.584 1611.694 1611.786 1611.861 1611.922 1611.967 1611.999 1612.012 1612.006 1611.984 1611.95 1611.903 1611.845 1611.779 1611.704 1611.621 1611.527 1611.424 1611.319 1611.223 1611.161 1611.155 1611.199 1611.273 1611.364 1611.464 1611.574 1611.694 1611.822 1611.959 1612.104 1612.259 1612.424 1612.597 1612.777 1612.959 1613.142 1613.347 1613.562 1613.784 1614.015 1614.255 1614.516 1614.819 1615.164 1615.531 1615.908 1616.292 1616.679 1617.066 1617.454 1617.842 1618.233 1618.627 1619.026 1619.431 1619.843 1620.262 1620.688 1621.032 1621.339 1621.292 1621.686 1622.11 1622.292 1622.216 1622.26 1622.564 1622.553 1623.014 1623.835 1623.868 1624.759 1625.397 1626.144 1626.277 1626.398 1627.04 1627.659 1628.158 1628.473 1628.719 1629.329 1629.793 1630.445 1630.88 1630.915 1632.072 1632.876 1633.738 1634.346 1634.787 1635.317 1635.67 1636.194 1637.387 1637.774 1638.37 1639.115 1639.85 1640.739 1641.587 1642.378 1642.147 1641.938 1641.702 1641.893 1642.463 1642.332 1642.337 1642.238 1642.705 1643.369 1643.196 1642.432 1642.445 1641.777 1642.169 1642.403 1642.452 1642.947 1642.961 1643.802 1644.654 1645.654 1646.519 1647.2 1647.236 1647.706 1648.075 1649.032 1649.49 1648.988 1649.523 1649.366 1648.994 1648.789 1648.313 1647.851 1647.412 1646.964 1647.576 1647.463 1647.265 1647.453 1648.022 1647.333 1647.066 1646.468 1645.669 1645.935 1645.909 1645.617 1646.8 1646.868 1646.869 1646.655
1600.89 1601.09 1601.036 1600.91 1601.094 1601.191 1601.43 1601.639 1601.571 1601.446 1601.864 1601.525 1601.833 1601.792 1601.654 1601.695 1601.681 1601.561 1601.507 1602.064 1601.425 1601.527 1601.479 1601.575 1601.55 1601.543 1601.505 1601.585 1601.378 1601.569 1601.549 1601.793 1602.728 1602.799 1603 1603.586 1604.368 1604.987 1605.416 1606.068 1606.125 1605.777 1605.285 1604.411 1604.249 1605.343 1606 1606.191 1606.245 1606.574 1607.198 1607.723 1608.736 1609.153 1609.218 1609.182 1609.208 1609.229 1609.236 1609.213 1609.283 1609.377 1609.454 1609.532 1609.63 1609.768 1609.971 1610.182 1610.369 1610.55 1610.723 1610.89 1611.049 1611.189 1611.309 1611.411 1611.496 1611.565 1611.618 1611.657 1611.684 1611.693 1611.683 1611.658 1611.62 1611.569 1611.506 1611.435 1611.356 1611.268 1611.171 1611.067 1610.962 1610.859 1610.78 1610.774 1610.831 1610.916 1611.013 1611.117 1611.229 1611.348 1611.473 1611.606 1611.745 1611.892 1612.048 1612.212 1612.382 1612.558 1612.747 1612.961 1613.187 1613.421 1613.663 1613.915 1614.183 1614.476 1614.792 1615.139 1615.503 1615.877 1616.258 1616.638 1617.015 1617.391 1617.768 1618.147 1618.531 1618.922 1619.318 1619.709 1620.08 1620.278 1620.777 1620.84 1620.926 1621.185 1621.522 1621.471 1621.488 1621.798 1621.985 1622.289 1622.912 1623.424 1623.93 1624.64 1625.43 1625.715 1625.911 1626.539 1627.07 1627.465 1627.911 1628.442 1629.138 1629.467 1629.494 1630.474 1631.686 1632.534 1633.52 1633.971 1634.229 1634.808 1635.141 1635.456 1636.114 1636.622 1637.285 1637.289 1638.604 1640.052 1640.789 1641.289 1641.478 1641.498 1641.237 1640.874 1640.409 1641.208 1641.111 1640.85 1640.613 1641.157 1642.063 1641.599 1641.453 1641.137 1641.253 1641.313 1641.772 1641.864 1642.294 1642.631 1643.694 1644.872 1645.384 1645.908 1646.21 1646.648 1647.359 1647.83 1648.907 1649.224 1648.074 1648.935 1648.705 1648.494 1647.985 1647.802 1647.377 1646.722 1646.249 1646.748 1646.448 1646.539 1647.557 1647.159 1646.803 1646.299 1645.65 1644.781 1645.216 1645.221 1645.737 1645.966 1646.054 1646.058 1645.983
1600.814 1600.972 1601.006 1600.953 1601.032 1601.055 1601.059 1601.091 1601.442 1601.439 1601.66 1601.932 1601.707 1601.48 1601.447 1601.509 1601.516 1601.568 1601.584 1601.67 1601.501 1601.413 1601.563 1601.629 1601.575 1601.518 1601.718 1601.566 1601.462 1601.494 1601.438 1601.647 1601.9 1602.501 1602.821 1603.575 1604.18 1604.734 1605.177 1605.897 1606.191 1606.015 1605.112 1604.579 1604.093 1605.358 1605.943 1606.191 1606.272 1606.585 1607.171 1607.727 1608.353 1608.947 1609.129 1609.199 1609.256 1609.268 1609.342 1609.362 1609.288 1609.322 1609.353 1609.385 1609.439 1609.544 1609.744 1609.962 1610.142 1610.316 1610.479 1610.637 1610.787 1610.921 1611.036 1611.133 1611.212 1611.274 1611.319 1611.351 1611.372 1611.379 1611.365 1611.336 1611.294 1611.238 1611.17 1611.094 1611.009 1610.916 1610.817 1610.712 1610.606 1610.5 1610.399 1610.387 1610.466 1610.562 1610.667 1610.775 1610.885 1610.998 1611.118 1611.245 1611.376 1611.514 1611.661 1611.815 1611.979 1612.155 1612.355 1612.581 1612.817 1613.06 1613.311 1613.571 1613.846 1614.138 1614.44 1614.76 1615.107 1615.468 1615.839 1616.21 1616.573 1616.938 1617.302 1617.663 1618.023 1618.384 1618.755 1619.128 1619.498 1619.986 1620.166 1620.198 1620.424 1620.683 1620.801 1620.978 1621.05 1621.385 1621.725 1622.012 1622.531 1622.918 1623.621 1624.104 1624.75 1625.06 1625.567 1626.141 1626.538 1626.992 1627.547 1628.101 1628.558 1629.484 1630.078 1630.915 1631.838 1632.697 1633.344 1633.539 1633.904 1634.267 1634.523 1635.135 1635.285 1636.279 1636.349 1636.912 1638.106 1639.26 1640.271 1640.899 1641.069 1640.674 1640.394 1639.759 1640.112 1640.52 1640.4 1640.424 1640.093 1640.907 1640.996 1640.643 1640.481 1640.344 1640.441 1640.859 1641.132 1641.097 1641.771 1641.955 1643.268 1644.097 1644.699 1644.989 1645.468 1646.055 1647.033 1647.823 1648.449 1648.504 1647.402 1647.283 1647.844 1647.643 1647.302 1647.348 1646.884 1646.213 1645.531 1645.945 1646.159 1646.129 1646.607 1646.598 1646.102 1645.247 1644.916 1643.83 1644.092 1644.457 1644.998 1645.386 1645.336 1645.409 1645.205
1600.759 1601.066 1601.068 1601.035 1601.145 1601.098 1601.038 1600.972 1601.024 1601.291 1601.567 1601.839 1601.665 1601.495 1601.51 1602.192 1601.548 1601.637 1601.834 1601.633 1601.598 1601.565 1601.662 1601.442 1601.591 1601.691 1601.667 1601.636 1601.672 1601.353 1601.684 1601.727 1601.933 1602.298 1602.828 1603.474 1604.105 1604.686 1605.253 1605.783 1606.015 1605.834 1605.094 1604.232 1604.017 1605.158 1605.875 1606.213 1606.262 1606.59 1607.211 1607.697 1608.271 1608.784 1609.077 1609.249 1609.363 1609.27 1609.409 1609.468 1609.474 1609.415 1609.302 1609.233 1609.175 1609.271 1609.529 1609.738 1609.908 1610.067 1610.228 1610.378 1610.523 1610.657 1610.77 1610.862 1610.935 1610.988 1611.026 1611.05 1611.064 1611.066 1611.052 1611.019 1610.972 1610.91 1610.836 1610.756 1610.677 1610.593 1610.501 1610.403 1610.298 1610.184 1610.061 1610.038 1610.159 1610.273 1610.381 1610.485 1610.585 1610.683 1610.781 1610.884 1610.998 1611.126 1611.263 1611.408 1611.569 1611.754 1611.97 1612.205 1612.448 1612.699 1612.957 1613.224 1613.504 1613.797 1614.097 1614.405 1614.725 1615.068 1615.424 1615.784 1616.142 1616.496 1616.842 1617.18 1617.509 1617.83 1618.146 1618.483 1619.171 1619.514 1619.618 1619.921 1620.173 1620.01 1620.246 1620.578 1621.03 1621.311 1621.632 1621.819 1622.4 1622.898 1623.161 1623.448 1624.031 1624.596 1625.283 1625.822 1626.098 1626.96 1627.471 1628.022 1628.953 1629.789 1630.674 1631.433 1631.888 1632.306 1632.431 1632.897 1633.271 1633.57 1634.134 1634.594 1634.827 1635.321 1635.966 1636.661 1637.907 1639.238 1640.041 1639.974 1640.442 1640.042 1639.695 1639.302 1639.605 1639.827 1639.502 1639.187 1639.433 1639.862 1640.143 1639.601 1639.512 1639.47 1639.809 1639.828 1639.71 1640.619 1641.215 1641.788 1642.872 1643.415 1643.752 1644.397 1645.136 1645.826 1646.675 1647.561 1647.911 1647.671 1647.248 1646.762 1646.753 1646.929 1646.64 1646.71 1646.691 1646.149 1645.065 1644.85 1645.03 1645.182 1645.801 1645.835 1645.554 1644.744 1644.001 1643.08 1643.873 1643.872 1644.464 1644.716 1644.566 1644.557 1644.357
1600.71 1600.91 1601.078 1600.985 1601.021 1601.147 1601.136 1601.038 1600.983 1601.127 1601.17 1601.368 1601.688 1601.581 1601.661 1601.824 1601.736 1601.705 1601.541 1601.622 1601.531 1601.601 1601.614 1601.55 1601.724 1601.488 1601.661 1601.561 1601.61 1601.767 1601.606 1601.271 1601.792 1602.281 1602.701 1603.427 1604.068 1604.546 1605.167 1605.675 1605.857 1605.846 1605.277 1604.25 1603.988 1604.935 1605.821 1606.141 1606.185 1606.58 1607.269 1607.891 1608.302 1608.764 1609.217 1609.392 1609.276 1609.323 1609.471 1609.481 1609.6 1609.49 1609.377 1609.246 1609.1 1609.161 1609.369 1609.563 1609.726 1609.868 1609.99 1610.128 1610.262 1610.394 1610.509 1610.598 1610.665 1610.713 1610.742 1610.756 1610.759 1610.755 1610.74 1610.706 1610.652 1610.583 1610.513 1610.451 1610.387 1610.316 1610.239 1610.156 1610.069 1609.984 1609.937 1609.938 1609.983 1610.069 1610.159 1610.247 1610.332 1610.412 1610.488 1610.563 1610.64 1610.73 1610.853 1610.988 1611.154 1611.357 1611.59 1611.832 1612.082 1612.338 1612.602 1612.875 1613.159 1613.452 1613.753 1614.062 1614.377 1614.693 1615.019 1615.373 1615.73 1616.07 1616.393 1616.699 1616.982 1617.235 1617.465 1617.767 1618.449 1619.166 1619.267 1619.353 1619.638 1619.615 1619.791 1620.415 1620.496 1620.984 1621.318 1621.736 1622.186 1622.484 1623.044 1623.39 1623.922 1624.723 1625.233 1625.703 1626.305 1627.11 1627.887 1628.656 1629.015 1629.795 1630.78 1631.147 1631.727 1631.876 1631.951 1632.165 1632.182 1633.038 1633.56 1634.084 1634.177 1634.411 1635.503 1636.741 1638.081 1639.037 1639.72 1639.76 1639.421 1639.22 1638.939 1638.325 1638.856 1638.991 1638.704 1638.399 1638.616 1639.095 1639.258 1638.841 1638.559 1638.756 1639.159 1639.195 1639.528 1640.157 1640.516 1641.071 1641.73 1642.803 1643.659 1644.436 1644.926 1645.485 1646.38 1647.1 1647.663 1647.252 1646.491 1645.752 1646.194 1646.231 1645.998 1646.199 1645.961 1645.311 1644.599 1644.29 1644.099 1644.256 1645.02 1644.796 1644.897 1644.355 1643.427 1642.523 1642.565 1642.85 1643.481 1644.078 1643.94 1643.969 1643.791
